ply
format ascii 1.0
element vertex 1594
property float32 x
property float32 y
property float32 z
property float32 I
end_header
-3.4097 8.0197 -1.8421 0.9650
-4.9092 7.4826 -1.8917 0.9641
-5.8307 7.3603 -1.9849 0.9623
-6.4813 6.8292 -1.9902 0.9622
-7.5864 5.5652 -1.9888 0.9623
-8.7833 3.3559 -1.9875 0.9623
-9.2383 1.7416 -1.9872 0.9623
-9.3569 0.9106 -1.9872 0.9623
-9.3714 -0.7664 -1.9875 0.9623
-9.2672 -1.5996 -1.9879 0.9623
-8.8399 -3.2222 -1.9888 0.9623
-8.5199 -3.9992 -1.9895 0.9623
-8.1323 -4.7449 -1.9902 0.9622
-7.1660 -6.1196 -1.9919 0.9622
-6.5948 -6.7376 -1.9929 0.9622
-5.9707 -7.3028 -1.9939 0.9622
-5.2984 -7.8106 -1.9950 0.9621
-4.5833 -8.2568 -1.9962 0.9621
-3.8308 -8.6378 -1.9974 0.9621
-2.2379 -9.1924 -1.9998 0.9621
-0.5697 -9.4556 -2.0023 0.9620
1.1208 -9.4180 -2.0048 0.9620
1.9575 -9.2861 -2.0060 0.9619
2.7797 -9.0798 -2.0072 0.9619
3.5804 -8.8006 -2.0083 0.9619
6.4442 -7.0062 -2.0122 0.9618
7.5919 -5.7538 -2.0136 0.9618
8.0772 -5.0551 -2.0142 0.9618
8.4978 -4.3155 -2.0146 0.9618
8.8504 -3.5410 -2.0150 0.9618
9.1321 -2.7378 -2.0152 0.9618
9.3405 -1.9125 -2.0154 0.9618
9.5122 0.6285 -2.0151 0.9618
9.0007 3.1224 -2.0138 0.9618
8.6835 3.9116 -2.0132 0.9618
8.2970 4.6688 -2.0124 0.9618
7.8443 5.3880 -2.0116 0.9618
7.3292 6.0635 -2.0107 0.9619
6.7559 6.6898 -2.0097 0.9619
3.6778 7.9549 -1.8525 0.9648
2.9518 8.2462 -1.8514 0.9648
0.6621 8.7170 -1.8479 0.9649
-0.8962 8.6852 -1.8456 0.9649
-1.6663 8.5655 -1.8445 0.9650
-3.1581 8.1238 -1.8424 0.9650
-6.2635 7.0270 -1.9898 0.9622
-7.4096 5.8001 -1.9890 0.9623
-8.6746 3.6289 -1.9876 0.9623
-9.1795 2.0295 -1.9872 0.9623
-9.3238 1.2026 -1.9872 0.9623
-9.3942 0.3662 -1.9873 0.9623
-9.3903 -0.4732 -1.9874 0.9623
-9.3120 -1.3091 -1.9877 0.9623
-9.1600 -2.1349 -1.9881 0.9623
-8.6397 -3.7305 -1.9892 0.9623
-7.8453 -5.2101 -1.9907 0.9622
-7.3525 -5.8917 -1.9916 0.9622
-6.8009 -6.5271 -1.9925 0.9622
-2.5235 -9.1160 -1.9994 0.9621
-0.8647 -9.4311 -2.0019 0.9620
1.6661 -9.3408 -2.0056 0.9620
2.4941 -9.1604 -2.0068 0.9619
3.3031 -8.9064 -2.0079 0.9619
4.0865 -8.5810 -2.0090 0.9619
6.8417 -6.6221 -2.0127 0.9618
7.4076 -5.9876 -2.0134 0.9618
7.9145 -5.3046 -2.0140 0.9618
8.3582 -4.5786 -2.0145 0.9618
8.7350 -3.8156 -2.0149 0.9618
9.0417 -3.0217 -2.0152 0.9618
9.2760 -2.2034 -2.0153 0.9618
9.5199 -0.5202 -2.0153 0.9618
9.4588 1.1793 -2.0149 0.9618
9.3141 2.0179 -2.0145 0.9618
8.8025 3.6387 -2.0134 0.9618
8.4400 4.4079 -2.0127 0.9618
8.0100 5.1411 -2.0119 0.9618
7.5163 5.8325 -2.0110 0.9619
6.9628 6.4766 -2.0101 0.9619
3.9254 7.8377 -1.8529 0.9648
3.2087 8.1517 -1.8518 0.9648
0.9343 8.6940 -1.8483 0.9649
-0.6245 8.7108 -1.8460 0.9649
-2.1597 8.4511 -1.8438 0.9650
-2.9033 8.2201 -1.8428 0.9650
-3.6229 7.9241 -1.8418 0.9650
-5.1931 7.4706 -1.9232 0.9635
-6.6613 6.6523 -1.9900 0.9622
-7.7322 5.3593 -1.9886 0.9623
-8.1773 4.6471 -1.9881 0.9623
-8.5575 3.8984 -1.9877 0.9623
-8.8698 3.1191 -1.9874 0.9623
-9.3780 0.6595 -1.9872 0.9623
-9.3479 -1.0174 -1.9876 0.9623
-8.7511 -3.4584 -1.9890 0.9623
-8.0031 -4.9618 -1.9904 0.9622
-7.5318 -5.6582 -1.9913 0.9622
-6.4128 -6.9131 -1.9932 0.9622
-5.7737 -7.4615 -1.9943 0.9622
-2.8065 -9.0307 -1.9990 0.9621
-1.9910 -9.2508 -2.0002 0.9621
-1.1587 -9.3974 -2.0015 0.9620
0.5301 -9.4656 -2.0040 0.9620
1.3731 -9.3863 -2.0052 0.9620
3.0225 -9.0035 -2.0075 0.9619
3.8157 -8.7028 -2.0087 0.9619
4.5791 -8.3322 -2.0097 0.9619
5.3066 -7.8944 -2.0107 0.9619
6.6305 -6.8318 -2.0124 0.9618
7.2161 -6.2154 -2.0131 0.9618
7.7441 -5.5487 -2.0138 0.9618
8.2104 -4.8372 -2.0143 0.9618
8.6110 -4.0864 -2.0147 0.9618
8.9425 -3.3026 -2.0151 0.9618
9.2024 -2.4921 -2.0153 0.9618
9.3733 1.7260 -2.0146 0.9618
9.1799 2.5546 -2.0142 0.9618
7.6961 5.5956 -2.0113 0.9618
5.0918 7.6897 -1.9495 0.9630
2.7291 8.3208 -1.8510 0.9648
0.4281 8.7300 -1.8476 0.9649
-0.3521 8.7279 -1.8464 0.9649
-1.8950 8.5162 -1.8442 0.9650
-2.6455 8.3085 -1.8431 0.9650
-3.3742 8.0350 -1.8421 0.9650
-4.0752 7.6980 -1.8411 0.9650
-5.7969 7.3848 -1.9845 0.9623
-6.4510 6.8581 -1.9902 0.9622
-7.5617 5.5989 -1.9888 0.9623
-9.2305 1.7826 -1.9872 0.9623
-9.3746 -0.7248 -1.9875 0.9623
-9.2741 -1.5583 -1.9878 0.9623
-9.1001 -2.3799 -1.9883 0.9623
-8.1531 -4.7086 -1.9902 0.9622
-7.7038 -5.4193 -1.9910 0.9622
-7.1929 -6.0875 -1.9919 0.9622
-5.3329 -7.7867 -1.9950 0.9621
-4.6198 -8.2361 -1.9961 0.9621
-3.0866 -8.9367 -1.9985 0.9621
0.2340 -9.4755 -2.0035 0.9620
3.5412 -8.8161 -2.0083 0.9619
4.3157 -8.4697 -2.0093 0.9619
5.0565 -8.0550 -2.0103 0.9619
6.4129 -7.0346 -2.0121 0.9618
7.0175 -6.4370 -2.0129 0.9618
8.4785 -4.3532 -2.0146 0.9618
9.3319 -1.9540 -2.0154 0.9618
9.5150 0.5863 -2.0151 0.9618
9.2560 2.2667 -2.0143 0.9618
9.0146 3.0825 -2.0138 0.9618
8.7010 3.8730 -2.0132 0.9618
7.8683 5.3532 -2.0116 0.9618
7.3562 6.0310 -2.0107 0.9619
6.7857 6.6599 -2.0098 0.9619
5.4448 7.6896 -1.9916 0.9622
4.4723 7.6890 -1.8802 0.9643
2.2408 8.4617 -1.8503 0.9648
0.7008 8.7143 -1.8480 0.9649
-1.6283 8.5730 -1.8446 0.9650
-2.3851 8.3887 -1.8435 0.9650
-3.8334 7.8229 -1.8415 0.9650
-4.5449 7.4976 -1.8533 0.9648
-5.4865 7.4579 -1.9571 0.9629
-6.2310 7.0533 -1.9894 0.9623
-6.8365 6.4706 -1.9897 0.9622
-7.3839 5.8330 -1.9891 0.9623
-7.8724 5.1497 -1.9885 0.9623
-8.9499 2.8801 -1.9874 0.9623
-9.3925 0.4079 -1.9873 0.9623
-9.1693 -2.0942 -1.9881 0.9623
-8.2951 -4.4510 -1.9899 0.9622
-6.2261 -7.0836 -1.9935 0.9622
-5.5725 -7.6148 -1.9946 0.9622
-4.8739 -8.0861 -1.9957 0.9621
-4.1356 -8.4936 -1.9969 0.9621
-3.3636 -8.8339 -1.9981 0.9621
-2.5638 -9.1044 -1.9993 0.9621
-1.7427 -9.3026 -2.0006 0.9620
-0.9066 -9.4269 -2.0018 0.9620
-0.0621 -9.4761 -2.0031 0.9620
0.7838 -9.4497 -2.0043 0.9620
1.6245 -9.3478 -2.0056 0.9620
3.2634 -8.9208 -2.0079 0.9619
6.8120 -6.6523 -2.0126 0.9618
7.3808 -6.0203 -2.0133 0.9618
8.3377 -4.6156 -2.0145 0.9618
8.7179 -3.8543 -2.0148 0.9618
9.0282 -3.0618 -2.0151 0.9618
9.2661 -2.2446 -2.0153 0.9618
9.4297 -1.4092 -2.0154 0.9618
9.5290 0.2887 -2.0152 0.9618
9.4640 1.1373 -2.0149 0.9618
9.1074 2.7995 -2.0140 0.9618
8.4596 4.3704 -2.0127 0.9618
6.3856 7.0401 -2.0091 0.9619
4.8003 7.6895 -1.9161 0.9636
3.9602 7.8205 -1.8530 0.9648
3.2450 8.1376 -1.8518 0.9648
2.5047 8.3894 -1.8507 0.9648
1.7453 8.5740 -1.8495 0.9649
0.1938 8.7367 -1.8472 0.9649
-1.3599 8.6215 -1.8450 0.9649
-2.8668 8.2332 -1.8428 0.9650
-5.1454 7.4726 -1.9178 0.9636
-5.9994 7.2348 -1.9867 0.9623
-6.6318 6.6819 -1.9900 0.9622
-8.5402 3.9365 -1.9878 0.9623
-8.8559 3.1585 -1.9875 0.9623
-9.3750 0.7012 -1.9872 0.9623
-8.7662 -3.4194 -1.9890 0.9623
-8.0249 -4.9261 -1.9904 0.9622
-7.5567 -5.6246 -1.9912 0.9622
-7.0281 -6.2791 -1.9922 0.9622
-6.4433 -6.8844 -1.9931 0.9622
-5.8066 -7.4355 -1.9942 0.9622
-5.1231 -7.9282 -1.9953 0.9621
-2.0320 -9.2416 -2.0001 0.9621
-1.2004 -9.3919 -2.0014 0.9620
1.3314 -9.3921 -2.0051 0.9620
4.5419 -8.3522 -2.0096 0.9619
5.9592 -7.4193 -2.0115 0.9618
6.6000 -6.8610 -2.0124 0.9618
7.1883 -6.2473 -2.0131 0.9618
8.9277 -3.3423 -2.0151 0.9618
9.1912 -2.5329 -2.0153 0.9618
9.4955 -0.8596 -2.0154 0.9618
9.4954 0.8411 -2.0150 0.9618
9.1912 2.5138 -2.0142 0.9618
8.9279 3.3227 -2.0136 0.9618
8.5932 4.1044 -2.0130 0.9618
8.1897 4.8527 -2.0122 0.9618
7.7210 5.5615 -2.0114 0.9618
5.9573 7.3875 -2.0061 0.9619
4.2035 7.6945 -1.8533 0.9648
2.0128 8.5171 -1.8499 0.9649
1.2443 8.6573 -1.8488 0.9649
0.4668 8.7283 -1.8476 0.9649
-0.3133 8.7297 -1.8465 0.9649
-1.0900 8.6617 -1.8453 0.9649
-2.6086 8.3204 -1.8432 0.9650
-3.3385 8.0501 -1.8422 0.9650
-4.0411 7.7162 -1.8412 0.9650
-5.7630 7.4092 -1.9841 0.9624
-7.0067 6.2844 -1.9895 0.9623
-7.5369 5.6325 -1.9889 0.9623
-8.0070 4.9364 -1.9883 0.9623
-8.7533 3.4339 -1.9876 0.9623
-9.0236 2.6392 -1.9873 0.9623
-9.2225 1.8236 -1.9872 0.9623
-9.2809 -1.5171 -1.9878 0.9623
-8.1738 -4.6723 -1.9901 0.9622
-7.2197 -6.0554 -1.9918 0.9622
-6.0350 -7.2491 -1.9938 0.9622
-5.3673 -7.7627 -1.9949 0.9622
-4.6562 -8.2152 -1.9961 0.9621
3.5019 -8.8316 -2.0082 0.9619
4.2779 -8.4885 -2.0093 0.9619
5.7237 -7.6007 -2.0112 0.9618
6.3815 -7.0629 -2.0121 0.9618
8.8185 -3.6194 -2.0149 0.9618
9.1073 -2.8188 -2.0152 0.9618
9.3231 -1.9954 -2.0153 0.9618
9.4296 1.3905 -2.0148 0.9618
7.8922 5.3184 -2.0117 0.9618
7.3831 5.9984 -2.0108 0.9619
6.8154 6.6299 -2.0098 0.9619
3.7485 7.9224 -1.8526 0.9648
1.5146 8.6161 -1.8492 0.9649
-0.8191 8.6933 -1.8457 0.9649
-2.3478 8.3995 -1.8435 0.9650
-3.0859 8.1520 -1.8425 0.9650
-4.5005 7.4994 -1.8488 0.9649
-6.1984 7.0796 -1.9890 0.9623
-7.3580 5.8658 -1.9891 0.9623
-8.2787 4.4628 -1.9880 0.9623
-9.1612 2.1110 -1.9872 0.9623
-9.3127 1.2853 -1.9872 0.9623
-9.3905 0.4496 -1.9872 0.9623
-9.3940 -0.3898 -1.9874 0.9623
-9.1784 -2.0534 -1.9881 0.9623
-8.9609 -2.8646 -1.9886 0.9623
-8.6722 -3.6535 -1.9892 0.9623
-8.3147 -4.4140 -1.9899 0.9622
-7.8909 -5.1400 -1.9906 0.9622
-7.4042 -5.8259 -1.9915 0.9622
-6.8583 -6.4661 -1.9924 0.9622
-4.9096 -8.0641 -1.9957 0.9621
-4.1732 -8.4748 -1.9968 0.9621
-1.7839 -9.2945 -2.0005 0.9620
-0.1042 -9.4754 -2.0030 0.9620
2.4125 -9.1816 -2.0067 0.9619
4.0099 -8.6165 -2.0089 0.9619
-8.3275 -1.5137 -1.9892 0.9658
-7.6353 -3.6670 -1.9907 0.9658
-6.8671 -4.9688 -1.9921 0.9658
-5.8800 -6.1151 -1.9938 0.9657
-4.7045 -7.0694 -1.9957 0.9657
-3.3771 -7.8011 -1.9979 0.9657
-1.1933 -8.4309 -2.0012 0.9656
0.3240 -8.5184 -2.0035 0.9656
1.0831 -8.4602 -2.0046 0.9656
3.9814 -7.5626 -2.0087 0.9655
4.6421 -7.1806 -2.0095 0.9655
5.2662 -6.7407 -2.0104 0.9655
6.3847 -5.7018 -2.0118 0.9654
8.5230 -0.8876 -2.0139 0.9654
8.5678 -0.1238 -2.0138 0.9654
8.5438 0.6408 -2.0136 0.9654
8.4514 1.4001 -2.0133 0.9654
8.2912 2.1479 -2.0129 0.9654
8.0646 2.8782 -2.0125 0.9654
7.4203 4.2627 -2.0112 0.9654
6.5398 5.5090 -2.0097 0.9655
5.4519 6.5773 -2.0078 0.9655
4.8411 7.0339 -2.0068 0.9655
4.1848 7.4206 -2.0022 0.9656
3.4545 7.6498 -1.9727 0.9661
1.2241 7.7712 -1.8489 0.9682
-0.8755 7.8049 -1.8458 0.9682
-2.2551 7.5479 -1.8514 0.9681
-3.7957 7.4917 -1.9738 0.9661
-4.4861 7.1830 -1.9904 0.9658
-5.6941 6.2751 -1.9915 0.9658
-6.2290 5.7402 -1.9908 0.9658
-6.7142 5.1602 -1.9902 0.9658
-7.1459 4.5396 -1.9897 0.9658
-7.5207 3.8833 -1.9893 0.9658
-7.8359 3.1965 -1.9890 0.9658
-8.4010 1.0078 -1.9886 0.9658
-8.4577 0.2544 -1.9887 0.9658
-8.2267 -1.9946 -1.9895 0.9658
-8.0179 -2.7211 -1.9899 0.9658
-7.0181 -4.7512 -1.9918 0.9658
-6.0673 -5.9275 -1.9935 0.9657
-3.6185 -7.6903 -1.9975 0.9657
-2.9198 -7.9868 -1.9986 0.9657
-1.4559 -8.3879 -2.0008 0.9656
-0.7023 -8.4891 -2.0019 0.9656
0.0577 -8.5227 -2.0031 0.9656
3.7425 -7.6821 -2.0083 0.9655
5.0524 -6.9010 -2.0101 0.9655
5.6499 -6.4253 -2.0109 0.9655
7.5487 -4.0484 -2.0132 0.9654
7.8811 -3.3596 -2.0135 0.9654
8.1503 -2.6435 -2.0138 0.9654
8.4915 1.1354 -2.0135 0.9654
7.5508 4.0292 -2.0115 0.9654
7.1588 4.6850 -2.0107 0.9655
6.7097 5.3027 -2.0099 0.9655
6.2073 5.8775 -2.0091 0.9655
5.6557 6.4048 -2.0082 0.9655
4.4203 7.2956 -2.0048 0.9656
3.7388 7.6338 -1.9978 0.9657
-4.9006 6.9180 -1.9925 0.9658
-5.4960 6.4508 -1.9917 0.9658
-6.0473 5.9327 -1.9910 0.9658
-6.5503 5.3680 -1.9904 0.9658
-7.0011 4.7611 -1.9899 0.9658
-7.7326 3.4400 -1.9891 0.9658
-8.4587 -0.2368 -1.9888 0.9658
-8.2844 -1.7364 -1.9893 0.9658
-7.8478 -3.1823 -1.9903 0.9658
-7.5350 -3.8708 -1.9909 0.9658
-7.1622 -4.5290 -1.9916 0.9658
-6.7323 -5.1517 -1.9924 0.9658
-6.2485 -5.7341 -1.9932 0.9658
-5.7148 -6.2714 -1.9941 0.9657
-5.1351 -6.7594 -1.9950 0.9657
-4.5140 -7.1941 -1.9961 0.9657
-3.8563 -7.5721 -1.9971 0.9657
-2.4523 -8.1457 -1.9993 0.9656
-1.7169 -8.3366 -2.0004 0.9656
-0.9670 -8.4613 -2.0016 0.9656
-0.2086 -8.5187 -2.0027 0.9656
3.5001 -7.7940 -2.0080 0.9655
4.1833 -7.4542 -2.0089 0.9655
4.8336 -7.0545 -2.0098 0.9655
5.4457 -6.5979 -2.0106 0.9655
8.0635 -2.8968 -2.0137 0.9654
8.2904 -2.1662 -2.0139 0.9654
8.4509 -1.4182 -2.0139 0.9654
8.5437 -0.6588 -2.0139 0.9654
8.5678 0.1059 -2.0138 0.9654
8.4104 1.6261 -2.0132 0.9654
8.2301 2.3693 -2.0128 0.9654
7.9839 3.0931 -2.0123 0.9654
7.3026 4.4596 -2.0110 0.9655
6.8731 5.0912 -2.0102 0.9655
6.3889 5.6816 -2.0094 0.9655
5.8540 6.2260 -2.0085 0.9655
5.2729 6.7201 -2.0075 0.9655
3.9802 7.5222 -2.0001 0.9656
3.2101 7.6487 -1.9495 0.9665
2.4321 7.6437 -1.8852 0.9676
1.7078 7.6826 -1.8497 0.9682
1.0152 7.7999 -1.8486 0.9682
0.3152 7.8550 -1.8476 0.9682
-0.3864 7.8474 -1.8465 0.9682
-1.0842 7.7774 -1.8455 0.9682
-2.4750 7.5405 -1.8652 0.9679
-4.0216 7.4361 -1.9869 0.9659
-7.6217 3.6801 -1.9892 0.9658
-7.9185 2.9852 -1.9889 0.9658
-8.4313 -0.7273 -1.9889 0.9658
-7.9427 -2.9352 -1.9901 0.9658
-7.6514 -3.6330 -1.9907 0.9658
-7.2993 -4.3025 -1.9913 0.9658
-6.8890 -4.9382 -1.9921 0.9658
-4.0903 -7.4465 -1.9967 0.9657
-3.4117 -7.7858 -1.9978 0.9657
-1.9762 -8.2773 -2.0000 0.9656
-1.2307 -8.4253 -2.0012 0.9656
-0.4746 -8.5063 -2.0023 0.9656
0.2862 -8.5195 -2.0034 0.9656
1.0455 -8.4647 -2.0045 0.9656
1.7973 -8.3422 -2.0056 0.9655
2.5356 -8.1529 -2.0066 0.9655
3.2543 -7.8982 -2.0077 0.9655
3.9477 -7.5801 -2.0086 0.9655
5.2362 -6.7639 -2.0103 0.9655
5.8208 -6.2722 -2.0111 0.9655
6.3592 -5.7300 -2.0118 0.9654
6.8469 -5.1414 -2.0124 0.9654
7.2801 -4.5114 -2.0129 0.9654
7.6550 -3.8449 -2.0133 0.9654
7.9687 -3.1472 -2.0136 0.9654
7.4393 4.2298 -2.0113 0.9654
7.0298 4.8746 -2.0105 0.9655
6.0467 6.0410 -2.0088 0.9655
5.4812 6.5532 -2.0079 0.9655
4.8724 7.0125 -2.0069 0.9655
4.2185 7.4033 -2.0026 0.9656
2.6986 7.6457 -1.9056 0.9672
-0.8408 7.8089 -1.8459 0.9682
-1.5332 7.6986 -1.8449 0.9683
-2.2195 7.5505 -1.8496 0.9682
-5.0837 6.7833 -1.9923 0.9658
-5.6663 6.3004 -1.9915 0.9658
-6.2036 5.7679 -1.9908 0.9658
-6.6913 5.1901 -1.9902 0.9658
-7.8217 3.2314 -1.9890 0.9658
-8.0778 2.5205 -1.9887 0.9658
-8.2699 1.7899 -1.9886 0.9658
-8.4565 0.2920 -1.9887 0.9658
-8.4496 -0.4635 -1.9888 0.9658
-8.3757 -1.2154 -1.9891 0.9658
-8.2354 -1.9580 -1.9895 0.9658
-8.0298 -2.6854 -1.9899 0.9658
-7.4293 -4.0718 -1.9911 0.9658
-6.0934 -5.9003 -1.9935 0.9657
-4.9528 -6.8957 -1.9953 0.9657
-4.3202 -7.3137 -1.9964 0.9657
-3.6526 -7.6739 -1.9974 0.9657
-2.9551 -7.9735 -1.9985 0.9657
-0.7400 -8.4856 -2.0019 0.9656
0.7803 -8.4916 -2.0041 0.9656
1.5355 -8.3927 -2.0052 0.9655
2.2792 -8.2267 -2.0063 0.9655
3.7083 -7.6985 -2.0083 0.9655
6.1763 -5.9252 -2.0115 0.9654
6.6823 -5.3524 -2.0122 0.9654
7.1350 -4.7363 -2.0127 0.9654
7.8660 -3.3945 -2.0135 0.9654
8.1385 -2.6797 -2.0137 0.9654
8.3457 -1.9433 -2.0139 0.9654
8.4859 -1.1912 -2.0139 0.9654
8.5617 0.3355 -2.0137 0.9654
8.4965 1.0977 -2.0135 0.9654
8.1630 2.5888 -2.0127 0.9654
7.5687 3.9957 -2.0115 0.9654
7.1796 4.6532 -2.0108 0.9655
5.6843 6.3798 -2.0082 0.9655
5.0901 6.8580 -2.0072 0.9655
2.9710 7.6475 -1.9282 0.9669
0.1045 7.8593 -1.8473 0.9682
-0.5965 7.8329 -1.8462 0.9682
-1.2921 7.7442 -1.8452 0.9683
-1.9767 7.5941 -1.8443 0.9683
-2.6982 7.5328 -1.8805 0.9677
-5.4674 6.4752 -1.9918 0.9658
-6.0210 5.9596 -1.9910 0.9658
-6.5265 5.3971 -1.9904 0.9658
-7.3779 4.1496 -1.9894 0.9658
-7.7173 3.4743 -1.9891 0.9658
-7.9954 2.7718 -1.9888 0.9658
-8.2100 2.0474 -1.9886 0.9658
-8.4431 0.5561 -1.9886 0.9658
-8.4091 -0.9531 -1.9890 0.9658
-7.8618 -3.1474 -1.9903 0.9658
-7.5520 -3.8372 -1.9909 0.9658
-4.5458 -7.1738 -1.9960 0.9657
-1.7539 -8.3287 -2.0004 0.9656
-0.2464 -8.5174 -2.0026 0.9656
0.5145 -8.5102 -2.0037 0.9656
2.0206 -8.2924 -2.0059 0.9655
2.7536 -8.0833 -2.0070 0.9655
3.4653 -7.8093 -2.0079 0.9655
4.1500 -7.4726 -2.0089 0.9655
4.8021 -7.0757 -2.0098 0.9655
8.0505 -2.9326 -2.0137 0.9654
8.2807 -2.2031 -2.0139 0.9654
8.4446 -1.4557 -2.0139 0.9654
8.5407 -0.6967 -2.0139 0.9654
8.5682 0.0678 -2.0138 0.9654
8.5271 0.8317 -2.0136 0.9654
7.9977 3.0576 -2.0123 0.9654
7.3225 4.4272 -2.0110 0.9655
6.8958 5.0607 -2.0103 0.9655
5.8818 6.2001 -2.0085 0.9655
5.3028 6.6968 -2.0076 0.9655
-0.3516 7.8492 -1.8466 0.9682
-1.7387 7.6536 -1.8446 0.9683
-2.4383 7.5417 -1.8628 0.9680
-3.9881 7.4531 -1.9866 0.9659
-5.2631 6.6438 -1.9920 0.9658
-5.8325 6.1456 -1.9913 0.9658
-6.3553 5.5990 -1.9906 0.9658
-6.8274 5.0084 -1.9901 0.9658
-7.2452 4.3784 -1.9896 0.9658
-7.6054 3.7140 -1.9892 0.9658
-7.9052 3.0204 -1.9889 0.9658
-8.3148 1.5675 -1.9886 0.9658
-8.4215 0.8196 -1.9886 0.9658
-8.4344 -0.6898 -1.9889 0.9658
-7.9555 -2.8999 -1.9901 0.9658
-7.6674 -3.5990 -1.9906 0.9658
-6.9107 -4.9075 -1.9920 0.9658
-5.3720 -6.5706 -1.9947 0.9657
-4.7669 -7.0270 -1.9956 0.9657
-1.2681 -8.4195 -2.0011 0.9656
1.0079 -8.4690 -2.0045 0.9656
4.5780 -7.2212 -2.0095 0.9655
5.7927 -6.2979 -2.0111 0.9655
7.2599 -4.5436 -2.0128 0.9654
8.2076 -2.4607 -2.0138 0.9654
8.5664 -0.1999 -2.0139 0.9654
8.5493 0.5649 -2.0137 0.9654
8.4636 1.3250 -2.0134 0.9654
8.3101 2.0742 -2.0130 0.9654
8.0901 2.8065 -2.0125 0.9654
7.8053 3.5159 -2.0119 0.9654
7.4581 4.1967 -2.0113 0.9654
6.5887 5.4509 -2.0097 0.9655
5.5104 6.5289 -2.0079 0.9655
4.9037 6.9910 -2.0069 0.9655
1.2932 7.7605 -1.8490 0.9682
-0.1061 7.8579 -1.8470 0.9682
-0.8062 7.8128 -1.8459 0.9682
-1.4990 7.7056 -1.8449 0.9683
-2.9252 7.5247 -1.8974 0.9674
-3.7140 7.4949 -1.9659 0.9662
-5.0536 6.8059 -1.9923 0.9658
-5.6383 6.3256 -1.9915 0.9658
-6.1780 5.7955 -1.9908 0.9658
-6.6683 5.2198 -1.9902 0.9658
-7.4861 3.9501 -1.9893 0.9658
-8.0415 -2.6496 -1.9899 0.9658
-7.7753 -3.3572 -1.9904 0.9658
-7.4471 -4.0387 -1.9911 0.9658
-6.6160 -5.3016 -1.9926 0.9658
-6.1194 -5.8731 -1.9934 0.9657
-5.5737 -6.3984 -1.9943 0.9657
-4.9832 -6.8734 -1.9953 0.9657
-4.3525 -7.2942 -1.9963 0.9657
-2.2698 -8.1996 -1.9996 0.9656
-0.0180 -8.5224 -2.0030 0.9656
2.2425 -8.2365 -2.0062 0.9655
4.3494 -7.3596 -2.0092 0.9655
5.5924 -6.4750 -2.0108 0.9655
6.1499 -5.9525 -2.0115 0.9654
6.6583 -5.3819 -2.0121 0.9654
7.1137 -4.7679 -2.0127 0.9654
8.5562 -0.4675 -2.0139 0.9654
8.5631 0.2975 -2.0137 0.9654
8.1745 2.5526 -2.0127 0.9654
7.2004 4.6214 -2.0108 0.9655
6.2596 5.8224 -2.0092 0.9655
5.7127 6.3546 -2.0083 0.9655
5.1206 6.8355 -2.0073 0.9655
3.8077 7.6028 -1.9984 0.9657
3.0103 7.6477 -1.9316 0.9668
2.2446 7.6421 -1.8719 0.9678
1.5353 7.7178 -1.8494 0.9682
0.8403 7.8196 -1.8484 0.9682
-1.9430 7.6030 -1.8443 0.9683
-2.6610 7.5341 -1.8779 0.9677
-3.4317 7.5059 -1.9397 0.9667
-4.1894 7.3487 -1.9881 0.9658
-4.8392 6.9615 -1.9926 0.9658
-5.4386 6.4996 -1.9918 0.9658
-5.9946 5.9864 -1.9911 0.9658
-6.5026 5.4262 -1.9904 0.9658
-7.7018 3.5086 -1.9891 0.9658
-8.2009 2.0839 -1.9887 0.9658
-8.3538 1.3441 -1.9886 0.9658
-8.4132 -0.9157 -1.9890 0.9658
-8.1197 -2.3969 -1.9897 0.9658
-7.8756 -3.1124 -1.9902 0.9658
-7.2019 -4.4650 -1.9915 0.9658
-6.7775 -5.0915 -1.9923 0.9658
-5.7700 -6.2201 -1.9940 0.9657
-5.1947 -6.7132 -1.9949 0.9657
-4.5775 -7.1534 -1.9960 0.9657
-3.9233 -7.5371 -1.9970 0.9657
-1.0421 -8.4519 -2.0014 0.9656
-0.2843 -8.5160 -2.0026 0.9656
2.7176 -8.0952 -2.0069 0.9655
4.1167 -7.4908 -2.0088 0.9655
5.9601 -6.1410 -2.0113 0.9654
6.4862 -5.5867 -2.0119 0.9654
7.3795 -4.3477 -2.0130 0.9654
7.7394 -3.6728 -2.0134 0.9654
8.2510 2.2961 -2.0129 0.9654
8.0113 3.0221 -2.0124 0.9654
7.7075 3.7235 -2.0118 0.9654
7.3422 4.3947 -2.0111 0.9655
6.4394 5.6249 -2.0095 0.9655
5.9094 6.1740 -2.0086 0.9655
5.3326 6.6733 -2.0076 0.9655
4.0483 7.4891 -2.0008 0.9656
3.2905 7.6491 -1.9570 0.9664
1.7761 7.6676 -1.8498 0.9682
1.0845 7.7911 -1.8487 0.9682
-1.0152 7.7871 -1.8456 0.9682
-4.6167 7.1053 -1.9915 0.9658
-6.3305 5.6273 -1.9907 0.9658
-8.1320 2.3392 -1.9887 0.9658
-8.3078 1.6044 -1.9886 0.9658
-8.4178 0.8570 -1.9886 0.9658
-8.4611 0.1028 -1.9887 0.9658
-8.4373 -0.6524 -1.9889 0.9658
-7.6832 -3.5648 -1.9906 0.9658
-7.3370 -4.2373 -1.9913 0.9658
-6.9323 -4.8766 -1.9920 0.9658
-6.4723 -5.4777 -1.9928 0.9658
-5.9606 -6.0358 -1.9937 0.9657
-5.4010 -6.5465 -1.9946 0.9657
-4.7979 -7.0056 -1.9956 0.9657
-3.4805 -7.7547 -1.9977 0.9657
-2.7765 -8.0387 -1.9988 0.9657
-2.0495 -8.2589 -1.9999 0.9656
0.2105 -8.5212 -2.0033 0.9656
1.7230 -8.3574 -2.0055 0.9655
2.4629 -8.1747 -2.0065 0.9655
3.1838 -7.9264 -2.0076 0.9655
3.8800 -7.6145 -2.0085 0.9655
4.5457 -7.2413 -2.0094 0.9655
5.1757 -6.8098 -2.0103 0.9655
6.3078 -5.7861 -2.0117 0.9654
6.8008 -5.2019 -2.0123 0.9654
8.1966 -2.4971 -2.0138 0.9654
8.3871 -1.7561 -2.0139 0.9654
8.5655 -0.2380 -2.0139 0.9654
7.8209 3.4813 -2.0120 0.9654
7.4768 4.1636 -2.0113 0.9654
7.0731 4.8122 -2.0106 0.9655
6.6130 5.4217 -2.0098 0.9655
6.1004 5.9873 -2.0089 0.9655
5.5395 6.5046 -2.0080 0.9655
4.9348 6.9693 -2.0070 0.9655
2.7754 7.6463 -1.9118 0.9671
2.0232 7.6399 -1.8574 0.9680
0.6303 7.8380 -1.8481 0.9682
-0.7715 7.8165 -1.8460 0.9682
-1.4667 7.7224 -1.8474 0.9682
-2.8873 7.5261 -1.8945 0.9674
-4.3883 7.2393 -1.9896 0.9658
-8.0551 2.5922 -1.9888 0.9658
-8.3868 1.1196 -1.9886 0.9658
-8.4533 -0.3884 -1.9888 0.9658
-8.3860 -1.1410 -1.9891 0.9658
-7.7900 -3.3226 -1.9904 0.9658
-7.4649 -4.0055 -1.9910 0.9658
-6.1453 -5.8457 -1.9934 0.9657
-5.6020 -6.3735 -1.9943 0.9657
-3.7204 -7.6408 -1.9973 0.9657
-3.0257 -7.9465 -1.9984 0.9657
-2.3061 -8.1892 -1.9995 0.9656
-1.5674 -8.3670 -2.0006 0.9656
-0.8153 -8.4783 -2.0018 0.9656
-0.0559 -8.5220 -2.0029 0.9656
1.4608 -8.4056 -2.0051 0.9656
2.9341 -8.0206 -2.0072 0.9655
4.9596 -6.9673 -2.0100 0.9655
5.5635 -6.4997 -2.0108 0.9655
6.1232 -5.9797 -2.0115 0.9654
6.6343 -5.4114 -2.0121 0.9654
7.4939 -4.1486 -2.0131 0.9654
8.1143 -2.7519 -2.0137 0.9654
8.5644 0.2594 -2.0138 0.9654
7.9267 3.2355 -2.0122 0.9654
7.2209 4.5894 -2.0109 0.9655
6.7802 5.2132 -2.0101 0.9655
5.7410 6.3294 -2.0083 0.9655
3.8421 7.5871 -1.9987 0.9657
0.1744 7.8585 -1.8474 0.9682
-0.5270 7.8383 -1.8463 0.9682
-1.2233 7.7558 -1.8453 0.9683
-1.9092 7.6117 -1.8444 0.9683
-2.6238 7.5354 -1.8753 0.9677
-3.3921 7.5074 -1.9362 0.9667
-4.8083 6.9831 -1.9926 0.9658
-5.4098 6.5238 -1.9918 0.9658
-6.4785 5.4551 -1.9905 0.9658
-6.9373 4.8541 -1.9899 0.9658
-8.4171 -0.8783 -1.9890 0.9658
-8.3066 -1.6258 -1.9893 0.9658
-8.1302 -2.3608 -1.9897 0.9658
-7.8892 -3.0773 -1.9902 0.9658
-7.5855 -3.7698 -1.9908 0.9658
-6.3240 -5.6500 -1.9931 0.9658
-5.2243 -6.6899 -1.9949 0.9657
-4.6091 -7.1328 -1.9959 0.9657
-3.9566 -7.5194 -1.9969 0.9657
-2.5604 -8.1116 -1.9991 0.9657
-1.0796 -8.4470 -2.0014 0.9656
-0.3221 -8.5144 -2.0025 0.9656
0.4389 -8.5140 -2.0036 0.9656
1.1972 -8.4455 -2.0047 0.9656
2.6816 -8.1070 -2.0069 0.9655
4.7388 -7.1178 -2.0097 0.9655
6.4613 -5.6154 -2.0119 0.9654
6.9384 -5.0182 -2.0125 0.9654
7.3601 -4.3804 -2.0130 0.9654
7.7230 -3.7071 -2.0134 0.9654
8.0240 -3.0040 -2.0136 0.9654
8.2608 -2.2765 -2.0138 0.9654
8.4313 -1.5307 -2.0139 0.9654
8.5342 -0.7726 -2.0139 0.9654
8.4315 1.5139 -2.0133 0.9654
8.0247 2.9865 -2.0124 0.9654
7.3617 4.3621 -2.0111 0.9655
6.4645 5.5963 -2.0095 0.9655
5.9369 6.1479 -2.0086 0.9655
5.3624 6.6497 -2.0077 0.9655
2.5450 7.6446 -1.8936 0.9674
1.1191 7.7864 -1.8488 0.9682
-0.2818 7.8525 -1.8467 0.9682
-1.6707 7.6691 -1.8447 0.9683
-2.3653 7.5442 -1.8582 0.9680
-3.9208 7.4865 -1.9862 0.9659
-5.2040 6.6905 -1.9921 0.9658
-6.7829 5.0690 -1.9901 0.9658
-7.5722 3.7815 -1.9892 0.9658
-8.1215 2.3753 -1.9887 0.9658
-8.3006 1.6413 -1.9886 0.9658
-8.4605 0.1404 -1.9887 0.9658
-8.4401 -0.6148 -1.9889 0.9658
-7.9807 -2.8291 -1.9900 0.9658
-7.6988 -3.5306 -1.9906 0.9658
-7.3556 -4.2046 -1.9912 0.9658
-6.9538 -4.8457 -1.9920 0.9658
-6.4965 -5.4488 -1.9928 0.9658
-5.9872 -6.0092 -1.9936 0.9657
-5.4299 -6.5223 -1.9946 0.9657
-4.8289 -6.9840 -1.9955 0.9657
-2.8120 -8.0261 -1.9987 0.9657
-2.0861 -8.2495 -1.9999 0.9656
0.1726 -8.5219 -2.0032 0.9656
3.1485 -7.9403 -2.0075 0.9655
4.5134 -7.2613 -2.0094 0.9655
6.2820 -5.8139 -2.0117 0.9654
6.7775 -5.2320 -2.0123 0.9654
7.2190 -4.6079 -2.0128 0.9654
7.6029 -3.9464 -2.0132 0.9654
8.1854 -2.5334 -2.0138 0.9654
8.5059 -1.0389 -2.0139 0.9654
8.5644 -0.2761 -2.0139 0.9654
8.5541 0.4889 -2.0137 0.9654
8.4752 1.2498 -2.0134 0.9654
8.3284 2.0004 -2.0130 0.9654
8.1149 2.7346 -2.0126 0.9654
7.8365 3.4465 -2.0120 0.9654
7.4954 4.1304 -2.0114 0.9654
7.0945 4.7808 -2.0106 0.9655
6.6372 5.3924 -2.0098 0.9655
6.1271 5.9603 -2.0090 0.9655
5.5685 6.4800 -2.0080 0.9655
3.6198 7.6503 -1.9891 0.9658
2.0596 7.6403 -1.8597 0.9680
0.6652 7.8353 -1.8481 0.9682
-1.4315 7.7243 -1.8463 0.9682
-2.8495 7.5275 -1.8916 0.9675
-3.6330 7.4981 -1.9582 0.9663
-4.9931 6.8508 -1.9924 0.9658
-6.6218 5.2790 -1.9903 0.9658
-7.4508 4.0165 -1.9893 0.9658
-8.3818 1.1569 -1.9886 0.9658
-8.4518 0.4047 -1.9886 0.9658
-8.3909 -1.1037 -1.9890 0.9658
-8.2605 -1.8480 -1.9894 0.9658
-8.0645 -2.5781 -1.9898 0.9658
-7.8045 -3.2880 -1.9904 0.9658
-7.4825 -3.9722 -1.9910 0.9658
-7.1009 -4.6254 -1.9917 0.9658
-6.6626 -5.2424 -1.9925 0.9658
-5.6301 -6.3484 -1.9942 0.9657
-4.4169 -7.2549 -1.9962 0.9657
-1.6045 -8.3597 -2.0006 0.9656
2.8984 -8.0334 -2.0072 0.9655
3.6051 -7.7467 -2.0081 0.9655
-7.2015 -2.6978 -1.9911 0.9687
-6.9340 -3.3302 -1.9917 0.9687
-6.6113 -3.9366 -1.9923 0.9687
-6.2360 -4.5122 -1.9929 0.9687
-5.8108 -5.0523 -1.9937 0.9687
-4.2714 -6.4186 -1.9962 0.9686
-3.0659 -7.0822 -1.9982 0.9686
-1.7606 -7.5219 -2.0002 0.9686
-1.0832 -7.6529 -2.0012 0.9686
0.2941 -7.7314 -2.0033 0.9685
1.6648 -7.5637 -2.0052 0.9685
5.3065 -5.6674 -2.0102 0.9684
5.7926 -5.1730 -2.0108 0.9684
6.2326 -4.6370 -2.0114 0.9684
6.6228 -4.0635 -2.0118 0.9684
7.4654 -2.1661 -2.0126 0.9684
7.6292 -1.4916 -2.0127 0.9684
7.7726 -0.1123 -2.0127 0.9684
7.7509 0.5813 -2.0125 0.9684
7.6671 1.2702 -2.0122 0.9684
7.3165 2.6112 -2.0114 0.9684
6.7324 3.8675 -2.0103 0.9684
6.3585 4.4511 -2.0096 0.9684
5.9339 4.9986 -2.0089 0.9685
5.4622 5.5058 -2.0081 0.9685
4.9473 5.9685 -2.0072 0.9685
4.3932 6.3831 -2.0063 0.9685
3.8046 6.7463 -2.0054 0.9685
3.1861 7.0553 -2.0044 0.9685
2.5402 7.3001 -2.0013 0.9686
1.8748 7.4813 -1.9969 0.9686
1.1967 7.5971 -1.9913 0.9687
0.5084 7.5863 -1.9686 0.9691
-0.1696 7.5729 -1.9613 0.9692
-0.8477 7.5568 -1.9689 0.9691
-2.2018 7.3693 -1.9914 0.9687
-2.8539 7.1525 -1.9939 0.9687
-4.0791 6.5313 -1.9938 0.9687
-4.6437 6.1391 -1.9930 0.9687
-5.6569 5.2130 -1.9917 0.9687
-6.4898 4.1229 -1.9907 0.9687
-6.8304 3.5269 -1.9904 0.9687
-7.1168 2.9032 -1.9901 0.9687
-7.3466 2.2566 -1.9899 0.9687
-7.5182 1.5922 -1.9898 0.9687
-7.6722 -0.4550 -1.9900 0.9687
-7.6020 -1.1377 -1.9902 0.9687
-7.0340 -3.1116 -1.9915 0.9687
-6.3731 -4.3146 -1.9927 0.9687
-5.9651 -4.8676 -1.9934 0.9687
-5.0093 -5.8548 -1.9950 0.9687
-4.4692 -6.2810 -1.9959 0.9687
-3.8929 -6.6577 -1.9969 0.9686
-2.6506 -7.2506 -1.9988 0.9686
-1.9944 -7.4619 -1.9998 0.9686
-0.6375 -7.7054 -2.0019 0.9686
0.0524 -7.7355 -2.0029 0.9685
0.7425 -7.7039 -2.0039 0.9685
2.1015 -7.4566 -2.0059 0.9685
3.3960 -6.9708 -2.0077 0.9685
4.0059 -6.6429 -2.0085 0.9685
4.5842 -6.2615 -2.0093 0.9684
5.1262 -5.8297 -2.0100 0.9684
6.0841 -4.8290 -2.0112 0.9684
6.4921 -4.2681 -2.0117 0.9684
7.3939 -2.3982 -2.0126 0.9684
7.7030 -1.0464 -2.0128 0.9684
7.7654 -0.3551 -2.0127 0.9684
7.7656 0.3389 -2.0126 0.9684
7.5797 1.7128 -2.0120 0.9684
7.1515 3.0309 -2.0111 0.9684
6.8507 3.6556 -2.0105 0.9684
5.1321 5.8119 -2.0075 0.9685
4.0142 6.6252 -2.0057 0.9685
3.4056 6.9535 -2.0047 0.9685
2.7694 7.2234 -2.0030 0.9685
2.1092 7.4243 -1.9984 0.9686
0.7476 7.5904 -1.9748 0.9690
0.0671 7.5779 -1.9621 0.9692
-0.6098 7.5628 -1.9645 0.9691
-1.2933 7.5447 -1.9819 0.9689
-2.6277 7.2346 -1.9929 0.9687
-4.9909 5.8580 -1.9926 0.9687
-5.4918 5.3877 -1.9919 0.9687
-7.0229 3.1243 -1.9902 0.9687
-7.2727 2.4851 -1.9899 0.9687
-7.4649 1.8264 -1.9898 0.9687
-7.6705 0.4710 -1.9898 0.9687
-7.3548 -2.2423 -1.9908 0.9687
-7.1271 -2.8901 -1.9913 0.9687
-6.8429 -3.5152 -1.9918 0.9687
-6.5041 -4.1129 -1.9925 0.9687
-5.6740 -5.2068 -1.9939 0.9687
-4.6625 -6.1373 -1.9956 0.9687
-4.0984 -6.5317 -1.9965 0.9686
-2.2262 -7.3946 -1.9995 0.9686
-1.5585 -7.5675 -2.0005 0.9686
-0.8778 -7.6803 -2.0015 0.9686
0.5013 -7.7219 -2.0036 0.9685
2.5315 -7.3243 -2.0065 0.9685
3.1761 -7.0725 -2.0074 0.9685
3.7958 -6.7639 -2.0082 0.9685
4.9410 -5.9863 -2.0097 0.9684
5.4570 -5.5236 -2.0104 0.9684
5.9297 -5.0163 -2.0110 0.9684
6.3551 -4.4686 -2.0115 0.9684
6.7298 -3.8847 -2.0119 0.9684
7.0506 -3.2696 -2.0123 0.9684
7.6665 -1.2866 -2.0128 0.9684
7.7506 -0.5976 -2.0127 0.9684
7.7726 0.0961 -2.0126 0.9684
7.6300 1.4752 -2.0121 0.9684
7.4665 2.1495 -2.0117 0.9684
7.2434 2.8062 -2.0113 0.9684
6.9623 3.4401 -2.0107 0.9684
6.2362 4.6194 -2.0094 0.9684
5.3120 5.6495 -2.0078 0.9685
4.7848 6.0982 -2.0069 0.9685
4.2199 6.4977 -2.0060 0.9685
2.9954 7.1372 -2.0041 0.9685
2.3419 7.3604 -1.9999 0.9686
0.9884 7.5942 -1.9829 0.9689
0.3043 7.5826 -1.9649 0.9691
-0.3727 7.5684 -1.9620 0.9692
-1.0527 7.5513 -1.9741 0.9690
-1.7361 7.4879 -1.9902 0.9687
-3.6642 6.7753 -1.9943 0.9687
-4.2522 6.4189 -1.9936 0.9687
-5.3213 5.5573 -1.9922 0.9687
-5.7941 5.0590 -1.9916 0.9687
-6.5976 3.9472 -1.9906 0.9687
-6.9222 3.3424 -1.9903 0.9687
-7.1918 2.7113 -1.9900 0.9687
-7.6852 0.0251 -1.9898 0.9687
-7.6575 -0.6605 -1.9900 0.9687
-7.5691 -1.3411 -1.9903 0.9687
-6.9486 -3.2993 -1.9916 0.9687
-4.8512 -5.9877 -1.9953 0.9687
-4.2998 -6.3994 -1.9962 0.9686
-3.7136 -6.7606 -1.9971 0.9686
-3.0973 -7.0684 -1.9981 0.9686
-2.4557 -7.3201 -1.9991 0.9686
-0.4308 -7.7209 -2.0022 0.9686
0.2597 -7.7325 -2.0032 0.9685
0.9489 -7.6823 -2.0042 0.9685
1.6311 -7.5708 -2.0052 0.9685
3.5821 -6.8782 -2.0079 0.9685
4.1830 -6.5339 -2.0087 0.9685
5.2812 -5.6908 -2.0102 0.9684
6.2119 -4.6646 -2.0113 0.9684
6.6046 -4.0928 -2.0118 0.9684
6.9447 -3.4881 -2.0122 0.9684
7.6225 -1.5255 -2.0127 0.9684
7.7720 -0.1468 -2.0127 0.9684
7.7535 0.5469 -2.0125 0.9684
7.6728 1.2361 -2.0122 0.9684
7.3281 2.5787 -2.0114 0.9684
6.7496 3.8376 -2.0103 0.9684
6.3783 4.4229 -2.0096 0.9684
5.4867 5.4816 -2.0081 0.9685
3.8346 6.7295 -2.0054 0.9685
2.5729 7.2896 -2.0015 0.9686
0.5423 7.5869 -1.9694 0.9691
-0.1360 7.5737 -1.9613 0.9692
-1.5010 7.5370 -1.9898 0.9687
-3.4512 6.8874 -1.9946 0.9687
-4.0501 6.5495 -1.9938 0.9687
-4.6164 6.1598 -1.9931 0.9687
-5.6337 5.2381 -1.9918 0.9687
-6.4715 4.1517 -1.9908 0.9687
-6.8148 3.5572 -1.9904 0.9687
-7.1038 2.9348 -1.9901 0.9687
-7.3365 2.2892 -1.9899 0.9687
-7.5110 1.6256 -1.9898 0.9687
-7.6260 0.9492 -1.9897 0.9687
-7.6805 0.2652 -1.9898 0.9687
-6.7468 -3.6977 -1.9920 0.9687
-5.9865 -4.8410 -1.9934 0.9687
-5.5330 -5.3577 -1.9942 0.9687
-3.3161 -6.9669 -1.9978 0.9686
-2.6827 -7.2385 -1.9988 0.9686
-0.6717 -7.7023 -2.0018 0.9686
0.0180 -7.7354 -2.0028 0.9685
0.7082 -7.7069 -2.0039 0.9685
1.3935 -7.6168 -2.0049 0.9685
2.0683 -7.4657 -2.0058 0.9685
2.7273 -7.2548 -2.0067 0.9685
3.9763 -6.6605 -2.0085 0.9685
5.1002 -5.8524 -2.0099 0.9684
5.6036 -5.3758 -2.0106 0.9684
6.0625 -4.8559 -2.0111 0.9684
7.3831 -2.4310 -2.0126 0.9684
7.5710 -1.7629 -2.0127 0.9684
7.7080 0.9958 -2.0123 0.9684
7.5873 1.6791 -2.0120 0.9684
7.1650 2.9991 -2.0111 0.9684
6.8670 3.6252 -2.0105 0.9684
5.1580 5.7891 -2.0076 0.9685
3.4365 6.9385 -2.0048 0.9685
2.8019 7.2119 -2.0033 0.9685
1.4696 7.5629 -1.9948 0.9687
0.7817 7.5910 -1.9758 0.9690
-0.5760 7.5636 -1.9640 0.9691
-1.9366 7.4404 -1.9906 0.9687
-5.4679 5.4122 -1.9920 0.9687
-6.3391 4.3522 -1.9909 0.9687
-7.2616 2.5174 -1.9899 0.9687
-7.4567 1.8596 -1.9898 0.9687
-7.5926 1.1870 -1.9897 0.9687
-7.6683 0.5051 -1.9898 0.9687
-7.6833 -0.1809 -1.9899 0.9687
-7.5308 -1.5436 -1.9904 0.9687
-7.3646 -2.2096 -1.9908 0.9687
-7.1398 -2.8583 -1.9913 0.9687
-6.8583 -3.4847 -1.9918 0.9687
-5.6969 -5.1815 -1.9939 0.9687
-5.2142 -5.6713 -1.9947 0.9687
-4.1272 -6.5133 -1.9965 0.9686
-3.5315 -6.8587 -1.9974 0.9686
-2.9071 -7.1499 -1.9984 0.9686
-1.5921 -7.5603 -2.0004 0.9686
-0.9119 -7.6762 -2.0015 0.9686
-0.2237 -7.7308 -2.0025 0.9685
0.4670 -7.7239 -2.0035 0.9685
1.1546 -7.6553 -2.0045 0.9685
1.8337 -7.5254 -2.0055 0.9685
3.7657 -6.7805 -2.0082 0.9685
5.4324 -5.5477 -2.0104 0.9684
5.9073 -5.0425 -2.0110 0.9684
6.3351 -4.4967 -2.0115 0.9684
6.7124 -3.9146 -2.0119 0.9684
7.0360 -3.3008 -2.0123 0.9684
7.5121 -1.9986 -2.0127 0.9684
7.4761 2.1163 -2.0118 0.9684
5.8201 5.1296 -2.0087 0.9685
5.3372 5.6260 -2.0079 0.9685
3.6523 6.8289 -2.0051 0.9685
3.0271 7.1239 -2.0041 0.9685
2.3749 7.3507 -2.0001 0.9686
1.7062 7.5179 -1.9960 0.9686
0.3381 7.5832 -1.9654 0.9691
-1.0187 7.5522 -1.9731 0.9690
-3.0143 7.0897 -1.9947 0.9687
-3.6342 6.7916 -1.9944 0.9687
-4.2238 6.4378 -1.9936 0.9687
-5.2967 5.5810 -1.9922 0.9687
-5.7716 5.0848 -1.9916 0.9687
-6.2005 4.5485 -1.9911 0.9687
-6.9073 3.3731 -1.9903 0.9687
-7.1797 2.7432 -1.9900 0.9687
-7.6487 0.7444 -1.9898 0.9687
-7.4295 -1.9782 -1.9907 0.9687
-7.2250 -2.6336 -1.9911 0.9687
-5.3881 -5.5048 -1.9944 0.9687
-4.3281 -6.3801 -1.9962 0.9686
-3.7435 -6.7439 -1.9971 0.9686
-2.4881 -7.3089 -1.9991 0.9686
-1.8272 -7.5055 -2.0001 0.9686
-1.1511 -7.6425 -2.0011 0.9686
-0.4651 -7.7187 -2.0021 0.9686
0.2254 -7.7334 -2.0032 0.9685
3.5514 -6.8939 -2.0079 0.9685
4.7235 -6.1580 -2.0095 0.9684
5.7463 -5.2242 -2.0108 0.9684
6.1910 -4.6920 -2.0113 0.9684
6.9290 -3.5189 -2.0121 0.9684
7.7244 -0.8739 -2.0128 0.9684
7.6782 1.2021 -2.0122 0.9684
7.5391 1.8818 -2.0119 0.9684
6.7667 3.8076 -2.0103 0.9684
6.3980 4.3946 -2.0097 0.9684
5.9783 4.9459 -2.0089 0.9684
5.5112 5.4573 -2.0081 0.9685
5.0003 5.9246 -2.0073 0.9685
4.4499 6.3441 -2.0064 0.9685
2.6055 7.2790 -2.0018 0.9686
-0.1023 7.5744 -1.9613 0.9692
-0.7799 7.5585 -1.9674 0.9691
-1.4667 7.5396 -1.9887 0.9688
-2.1360 7.3878 -1.9912 0.9687
-2.7898 7.1765 -1.9936 0.9687
-3.4206 6.9028 -1.9947 0.9687
-4.5891 6.1804 -1.9931 0.9687
-5.1203 5.7444 -1.9924 0.9687
-5.6105 5.2632 -1.9918 0.9687
-6.4531 4.1804 -1.9908 0.9687
-7.3263 2.3218 -1.9899 0.9687
-7.6792 0.2993 -1.9898 0.9687
-7.6759 -0.3868 -1.9900 0.9687
-7.6117 -1.0701 -1.9902 0.9687
-7.4872 -1.7450 -1.9905 0.9687
-7.0612 -3.0489 -1.9914 0.9687
-6.7630 -3.6677 -1.9920 0.9687
-5.5567 -5.3330 -1.9941 0.9687
-5.0610 -5.8098 -1.9950 0.9687
-4.5246 -6.2408 -1.9958 0.9687
-3.9517 -6.6225 -1.9968 0.9686
-3.3469 -6.9520 -1.9977 0.9686
-1.3891 -7.6015 -2.0007 0.9686
-0.7059 -7.6990 -2.0018 0.9686
0.6740 -7.7098 -2.0038 0.9685
2.0351 -7.4746 -2.0058 0.9685
2.6949 -7.2667 -2.0067 0.9685
3.3338 -7.0005 -2.0076 0.9685
3.9466 -6.6780 -2.0084 0.9685
4.5282 -6.3018 -2.0092 0.9684
5.0741 -5.8748 -2.0099 0.9684
5.5796 -5.4006 -2.0106 0.9684
6.4538 -4.3256 -2.0116 0.9684
7.1223 -3.1112 -2.0123 0.9684
7.3722 -2.4638 -2.0126 0.9684
7.7683 0.2699 -2.0126 0.9684
7.5947 1.6454 -2.0120 0.9684
6.8831 3.5947 -2.0106 0.9684
6.5330 4.1930 -2.0099 0.9684
6.1308 4.7573 -2.0092 0.9684
4.0731 6.5896 -2.0058 0.9685
3.4674 6.9233 -2.0048 0.9685
1.5033 7.5569 -1.9950 0.9687
0.8158 7.5915 -1.9769 0.9689
-0.5423 7.5644 -1.9636 0.9692
-1.9035 7.4486 -1.9906 0.9687
-3.2038 7.0074 -1.9950 0.9687
-3.8144 6.6909 -1.9941 0.9687
-4.9389 5.9023 -1.9927 0.9687
-5.4439 5.4365 -1.9920 0.9687
-5.9054 4.9278 -1.9914 0.9687
-6.6839 3.7984 -1.9905 0.9687
-6.9950 3.1866 -1.9902 0.9687
-7.4484 1.8927 -1.9898 0.9687
-7.6660 0.5391 -1.9898 0.9687
-7.3742 -2.1768 -1.9908 0.9687
-5.2392 -5.6479 -1.9947 0.9687
-4.7166 -6.0954 -1.9955 0.9687
-4.1560 -6.4948 -1.9964 0.9686
-2.2917 -7.3741 -1.9994 0.9686
-1.6256 -7.5530 -2.0004 0.9686
-0.2580 -7.7296 -2.0024 0.9685
1.8002 -7.5333 -2.0054 0.9685
2.4661 -7.3462 -2.0064 0.9685
3.7354 -6.7971 -2.0081 0.9685
4.8874 -6.0298 -2.0097 0.9684
5.4076 -5.5717 -2.0103 0.9684
6.3150 -4.5247 -2.0115 0.9684
7.0212 -3.3320 -2.0122 0.9684
7.2914 -2.6928 -2.0125 0.9684
7.5031 -2.0319 -2.0127 0.9684
7.7450 -0.6665 -2.0127 0.9684
7.7732 0.0270 -2.0126 0.9684
7.7391 0.7202 -2.0124 0.9684
7.6429 1.4074 -2.0122 0.9684
6.2772 4.5640 -2.0095 0.9684
5.8429 5.1038 -2.0087 0.9685
4.8391 6.0556 -2.0070 0.9685
3.0588 7.1106 -2.0042 0.9685
2.4078 7.3409 -2.0003 0.9686
1.7398 7.5109 -1.9962 0.9686
-0.3054 7.5699 -1.9616 0.9692
-2.3340 7.3302 -1.9918 0.9687
-2.9826 7.1024 -1.9945 0.9687
-4.7526 6.0545 -1.9929 0.9687
-6.1804 4.5761 -1.9911 0.9687
-6.5624 4.0057 -1.9907 0.9687
-6.8923 3.4038 -1.9903 0.9687
-7.1675 2.7751 -1.9900 0.9687
-6.9775 -3.2374 -1.9916 0.9687
-6.2952 -4.4284 -1.9928 0.9687
-5.4123 -5.4807 -1.9944 0.9687
-3.7733 -6.7271 -1.9970 0.9686
-3.1598 -7.0402 -1.9980 0.9686
-2.5205 -7.2976 -1.9990 0.9686
-1.8605 -7.4972 -2.0000 0.9686
-1.1850 -7.6371 -2.0011 0.9686
-0.4993 -7.7164 -2.0021 0.9686
0.1910 -7.7341 -2.0031 0.9685
1.5637 -7.5846 -2.0051 0.9685
2.8892 -7.1928 -2.0070 0.9685
5.2303 -5.7373 -2.0101 0.9684
5.7229 -5.2496 -2.0107 0.9684
6.5679 -4.1513 -2.0117 0.9684
6.9133 -3.5496 -2.0121 0.9684
7.2034 -2.9192 -2.0124 0.9684
7.4358 -2.2653 -2.0126 0.9684
7.7581 0.4780 -2.0125 0.9684
7.3509 2.5136 -2.0115 0.9684
6.7836 3.7776 -2.0104 0.9684
6.4175 4.3662 -2.0097 0.9684
6.0003 4.9194 -2.0090 0.9684
4.4782 6.3244 -2.0064 0.9685
3.8944 6.6955 -2.0055 0.9685
2.6382 7.2682 -2.0020 0.9686
1.9749 7.4579 -1.9975 0.9686
1.2996 7.5908 -1.9940 0.9687
-0.0687 7.5751 -1.9614 0.9692
-0.7461 7.5594 -1.9668 0.9691
-2.1030 7.3968 -1.9911 0.9687
-2.7577 7.1883 -1.9935 0.9687
-3.3900 6.9181 -1.9947 0.9687
-3.9919 6.5855 -1.9939 0.9687
-4.5617 6.2008 -1.9931 0.9687
-5.0948 5.7672 -1.9925 0.9687
-5.5871 5.2881 -1.9918 0.9687
-6.0349 4.7674 -1.9913 0.9687
-6.7830 3.6177 -1.9904 0.9687
-7.6172 1.0169 -1.9897 0.9687
-7.6778 0.3335 -1.9898 0.9687
-7.6775 -0.3527 -1.9899 0.9687
-7.6163 -1.0362 -1.9902 0.9687
-7.4948 -1.7117 -1.9905 0.9687
-6.4298 -4.2291 -1.9926 0.9687
-6.0291 -4.7874 -1.9933 0.9687
-5.5802 -5.3081 -1.9941 0.9687
-5.0866 -5.7871 -1.9949 0.9687
-3.9810 -6.6048 -1.9967 0.9686
-3.3777 -6.9369 -1.9977 0.9686
-2.0935 -7.4340 -1.9997 0.9686
-1.4228 -7.5950 -2.0007 0.9686
-0.7401 -7.6956 -2.0017 0.9686
2.0018 -7.4834 -2.0057 0.9685
3.3026 -7.0150 -2.0075 0.9685
3.9168 -6.6953 -2.0084 0.9685
5.5555 -5.4252 -2.0105 0.9684
6.0190 -4.9095 -2.0111 0.9684
6.4345 -4.3541 -2.0116 0.9684
6.7986 -3.7636 -2.0120 0.9684
7.1083 -3.1427 -2.0123 0.9684
7.3612 -2.4965 -2.0126 0.9684
7.7167 0.9273 -2.0124 0.9684
7.6020 1.6117 -2.0120 0.9684
7.1915 2.9354 -2.0112 0.9684
6.8991 3.5642 -2.0106 0.9684
6.5516 4.1640 -2.0100 0.9684
6.1519 4.7301 -2.0092 0.9684
4.6744 6.1824 -2.0068 0.9685
2.8666 7.1886 -2.0038 0.9685
2.2087 7.3979 -1.9990 0.9686
1.5370 7.5508 -1.9951 0.9687
0.8500 7.5921 -1.9780 0.9689
0.1682 7.5800 -1.9631 0.9692
-1.8703 7.4567 -1.9905 0.9687
-2.5306 7.2676 -1.9925 0.9687
-3.7847 6.7079 -1.9942 0.9687
-4.3663 6.3411 -1.9934 0.9687
-5.8835 4.9541 -1.9915 0.9687
-6.6671 3.8281 -1.9905 0.9687
-6.9808 3.2177 -1.9902 0.9687
-7.2391 2.5819 -1.9900 0.9687
-7.4399 1.9258 -1.9898 0.9687
-7.6635 0.5732 -1.9898 0.9687
-7.6845 -0.1126 -1.9899 0.9687
-7.5441 -1.4766 -1.9904 0.9687
-6.5580 -4.0256 -1.9924 0.9687
-5.2641 -5.6245 -1.9946 0.9687
-4.7435 -6.0742 -1.9955 0.9687
-4.1848 -6.4761 -1.9964 0.9686
-2.9704 -7.1234 -1.9983 0.9686
1.0865 -7.6649 -2.0044 0.9685
1.7667 -7.5411 -2.0054 0.9685
3.7051 -6.8134 -2.0081 0.9685
4.8605 -6.0513 -2.0096 0.9684
5.3827 -5.5956 -2.0103 0.9684
6.2948 -4.5527 -2.0114 0.9684
6.6772 -3.9740 -2.0119 0.9684
7.2793 -2.7252 -2.0125 0.9684
7.6487 -1.3886 -2.0128 0.9684
7.7420 -0.7009 -2.0127 0.9684
7.7422 0.6858 -2.0124 0.9684
7.4948 2.0498 -2.0118 0.9684
7.2804 2.7095 -2.0113 0.9684
7.0079 3.3472 -2.0108 0.9684
5.8656 5.0779 -2.0088 0.9685
5.3872 5.5786 -2.0079 0.9685
4.8660 6.0342 -2.0071 0.9685
3.7130 6.7965 -2.0052 0.9685
3.0904 7.0971 -2.0042 0.9685
1.7733 7.5038 -1.9964 0.9686
1.0917 7.5957 -1.9869 0.9688
0.4057 7.5845 -1.9666 0.9691
-0.2717 7.5707 -1.9614 0.9692
-0.9507 7.5541 -1.9713 0.9690
-2.9508 7.1150 -1.9944 0.9687
-4.1666 6.4753 -1.9937 0.9687
-4.7257 6.0756 -1.9929 0.9687
-5.2470 5.6280 -1.9923 0.9687
-6.1601 4.6035 -1.9911 0.9687
-6.8772 3.4344 -1.9903 0.9687
-7.1551 2.8069 -1.9900 0.9687
-7.6418 0.8123 -1.9897 0.9687
-7.6655 -0.5584 -1.9900 0.9687
-7.4466 -1.9122 -1.9906 0.9687
-6.6798 -3.8183 -1.9921 0.9687
-6.3147 -4.4003 -1.9928 0.9687
-5.8992 -4.9478 -1.9935 0.9687
-4.9303 -5.9222 -1.9952 0.9687
-3.8031 -6.7101 -1.9970 0.9686
-3.1910 -7.0259 -1.9980 0.9686
-2.5528 -7.2862 -1.9990 0.9686
-1.8937 -7.4887 -2.0000 0.9686
0.1566 -7.7347 -2.0031 0.9685
2.2020 -7.4281 -2.0060 0.9685
4.0953 -6.5887 -2.0086 0.9685
4.6685 -6.1995 -2.0094 0.9684
6.1489 -4.7467 -2.0113 0.9684
7.1903 -2.9512 -2.0124 0.9684
7.6015 -1.6269 -2.0127 0.9684
7.7694 -0.2504 -2.0127 0.9684
7.7602 0.4436 -2.0125 0.9684
7.6887 1.1338 -2.0123 0.9684
5.5596 5.4083 -2.0082 0.9685
4.5064 6.3046 -2.0065 0.9685
3.3113 6.9983 -2.0046 0.9685
1.3334 7.5856 -1.9942 0.9687
-1.3977 7.5417 -1.9859 0.9688
-3.3594 6.9332 -1.9948 0.9687
-3.9627 6.6033 -1.9939 0.9687
-4.5342 6.2211 -1.9932 0.9687
-5.0692 5.7899 -1.9925 0.9687
-5.5637 5.3130 -1.9919 0.9687
-6.4158 4.2377 -1.9908 0.9687
-6.7669 3.6478 -1.9904 0.9687
-7.3055 2.3868 -1.9899 0.9687
-7.4887 1.7256 -1.9898 0.9687
-7.5022 -1.6784 -1.9905 0.9687
-6.7951 -3.6073 -1.9919 0.9687
-6.4484 -4.2004 -1.9926 0.9687
-6.0502 -4.7605 -1.9933 0.9687
-5.6036 -5.2832 -1.9940 0.9687
-5.1121 -5.7643 -1.9949 0.9687
-4.5796 -6.2000 -1.9957 0.9687
-3.4084 -6.9216 -1.9976 0.9686
-1.4565 -7.5884 -2.0006 0.9686
-7.0324 -0.0083 -1.9908 0.9712
-6.7819 -1.8705 -1.9916 0.9712
-6.5894 -2.4684 -1.9920 0.9712
-5.7055 -4.1283 -1.9936 0.9711
-4.8846 -5.0800 -1.9951 0.9711
-4.4138 -5.4975 -1.9958 0.9711
-3.3696 -6.1995 -1.9975 0.9711
-2.8045 -6.4783 -1.9984 0.9711
0.2690 -7.0706 -2.0031 0.9710
0.8990 -7.0216 -2.0040 0.9710
2.1341 -6.7561 -2.0058 0.9710
2.7294 -6.5416 -2.0066 0.9710
6.0545 -3.7148 -2.0109 0.9709
6.3628 -3.1605 -2.0112 0.9709
6.6202 -2.5807 -2.0115 0.9709
6.8246 -1.9801 -2.0117 0.9709
6.9743 -1.3636 -2.0118 0.9709
7.0681 -0.7361 -2.0118 0.9709
7.0856 0.5314 -2.0115 0.9709
7.0091 1.1612 -2.0113 0.9709
6.8765 1.7814 -2.0109 0.9709
6.4477 2.9736 -2.0101 0.9709
6.1551 3.5359 -2.0095 0.9709
5.8134 4.0695 -2.0089 0.9709
4.5236 5.4574 -2.0067 0.9710
4.0172 5.8367 -2.0059 0.9710
3.4790 6.1691 -2.0050 0.9710
2.9136 6.4519 -2.0041 0.9710
2.3255 6.6831 -2.0032 0.9710
1.7193 6.8606 -2.0023 0.9710
1.1000 6.9834 -2.0013 0.9710
-0.1581 7.0611 -1.9995 0.9711
-0.7870 7.0156 -1.9985 0.9711
-2.6129 6.5485 -1.9959 0.9711
-4.7312 5.2138 -1.9931 0.9712
-5.9383 3.7725 -1.9916 0.9712
-6.2500 3.2272 -1.9913 0.9712
-6.8795 1.4570 -1.9907 0.9712
-7.0204 -0.4164 -1.9909 0.9712
-6.8366 -1.6576 -1.9915 0.9712
-6.6628 -2.2612 -1.9918 0.9712
-6.4360 -2.8471 -1.9923 0.9712
-6.1580 -3.4107 -1.9928 0.9712
-5.8310 -3.9476 -1.9934 0.9712
-5.0403 -4.9242 -1.9948 0.9711
-4.0884 -5.7459 -1.9964 0.9711
-3.0050 -6.3865 -1.9981 0.9711
-2.4245 -6.6321 -1.9990 0.9711
-1.8242 -6.8250 -1.9999 0.9711
-1.2087 -6.9638 -2.0009 0.9710
1.9217 -6.8185 -2.0055 0.9710
3.1052 -6.3738 -2.0071 0.9710
4.1913 -5.7248 -2.0086 0.9709
5.1449 -4.8920 -2.0098 0.9709
5.5622 -4.4148 -2.0103 0.9709
5.9351 -3.9019 -2.0108 0.9709
6.2606 -3.3576 -2.0111 0.9709
6.5360 -2.7862 -2.0114 0.9709
6.7592 -2.1923 -2.0116 0.9709
7.0417 -0.9566 -2.0118 0.9709
7.0988 -0.3246 -2.0117 0.9709
7.0423 0.9416 -2.0114 0.9709
6.9292 1.5658 -2.0111 0.9709
6.7606 2.1772 -2.0107 0.9709
4.6926 5.3141 -2.0070 0.9710
3.1143 6.3588 -2.0044 0.9710
0.6927 7.0333 -2.0007 0.9710
-0.5675 7.0379 -1.9989 0.9711
-1.1924 6.9561 -1.9980 0.9711
-2.4073 6.6279 -1.9962 0.9711
-2.9877 6.3842 -1.9954 0.9711
-4.5664 5.3597 -1.9933 0.9712
-5.8179 3.9564 -1.9918 0.9712
-6.4262 2.8588 -1.9911 0.9712
-6.6548 2.2740 -1.9909 0.9712
-6.8307 1.6712 -1.9908 0.9712
-6.9524 1.0553 -1.9907 0.9712
-6.9849 -0.8231 -1.9911 0.9712
-6.5213 -2.6444 -1.9921 0.9712
-5.9509 -3.7630 -1.9932 0.9712
-5.1910 -4.7637 -1.9945 0.9711
-4.7472 -5.2097 -1.9953 0.9711
-3.7491 -5.9751 -1.9969 0.9711
0.4585 -7.0618 -2.0034 0.9710
1.7074 -6.8742 -2.0052 0.9710
4.0099 -5.8523 -2.0083 0.9709
4.5174 -5.4731 -2.0090 0.9709
5.4211 -4.5860 -2.0101 0.9709
6.1523 -3.5514 -2.0110 0.9709
6.6872 -2.4024 -2.0115 0.9709
6.8753 -1.7965 -2.0117 0.9709
7.0084 -1.1761 -2.0118 0.9709
7.0853 -0.5463 -2.0117 0.9709
7.0686 0.7212 -2.0114 0.9709
6.9751 1.3486 -2.0112 0.9709
6.6220 2.5654 -2.0104 0.9709
6.3652 3.1451 -2.0099 0.9709
5.7016 4.2235 -2.0087 0.9709
5.3004 4.7135 -2.0080 0.9709
4.3752 5.5760 -2.0064 0.9710
2.7392 6.5269 -2.0038 0.9710
2.1452 6.7421 -2.0029 0.9710
1.5346 6.9033 -2.0020 0.9710
0.2833 7.0595 -2.0001 0.9711
-1.5936 6.8732 -1.9974 0.9711
-3.3523 6.1985 -1.9949 0.9711
-3.8904 5.8726 -1.9942 0.9711
-4.3972 5.5004 -1.9935 0.9711
-4.8688 5.0847 -1.9929 0.9712
-5.3015 4.6289 -1.9924 0.9712
-5.6919 4.1366 -1.9919 0.9712
-6.3340 3.0584 -1.9912 0.9712
-6.7753 1.8839 -1.9908 0.9712
-7.0019 0.6501 -1.9907 0.9712
-7.0069 -0.6044 -1.9910 0.9712
-6.9260 -1.2271 -1.9912 0.9712
-6.7900 -1.8403 -1.9916 0.9712
-5.7236 -4.1028 -1.9936 0.9711
-5.3367 -4.5986 -1.9943 0.9711
-4.4381 -5.4778 -1.9958 0.9711
-3.3970 -6.1844 -1.9975 0.9711
-2.8332 -6.4656 -1.9984 0.9711
-1.0217 -6.9947 -2.0012 0.9710
-0.3940 -7.0613 -2.0021 0.9710
0.2375 -7.0715 -2.0030 0.9710
1.4916 -6.9231 -2.0048 0.9710
2.7002 -6.5535 -2.0066 0.9710
4.3437 -5.6110 -2.0088 0.9709
5.6789 -4.2644 -2.0105 0.9709
6.0379 -3.7416 -2.0109 0.9709
6.3486 -3.1887 -2.0112 0.9709
6.6086 -2.6101 -2.0115 0.9709
6.8157 -2.0104 -2.0117 0.9709
6.9681 -1.3946 -2.0117 0.9709
7.0648 -0.7675 -2.0118 0.9709
7.0879 0.5000 -2.0115 0.9709
7.0142 1.1300 -2.0113 0.9709
6.8844 1.7509 -2.0110 0.9709
6.6994 2.3575 -2.0106 0.9709
6.4609 2.9449 -2.0101 0.9709
5.8315 4.0437 -2.0089 0.9709
5.0167 5.0120 -2.0075 0.9710
4.5479 5.4374 -2.0067 0.9710
4.0431 5.8189 -2.0059 0.9710
2.9423 6.4391 -2.0042 0.9710
1.7498 6.8531 -2.0023 0.9710
-0.1268 7.0619 -1.9995 0.9711
-0.7558 7.0192 -1.9986 0.9711
-1.3783 6.9207 -1.9977 0.9711
-1.9892 6.7673 -1.9968 0.9711
-3.7054 5.9921 -1.9945 0.9711
-4.2237 5.6357 -1.9938 0.9711
-6.2357 3.2550 -1.9913 0.9712
-6.5003 2.6854 -1.9910 0.9712
-6.7132 2.0947 -1.9908 0.9712
-6.9782 0.8686 -1.9907 0.9712
-7.0222 -0.3852 -1.9909 0.9712
-6.8438 -1.6272 -1.9914 0.9712
-6.1730 -3.3833 -1.9928 0.9712
-5.4771 -4.4290 -1.9940 0.9711
-3.5881 -6.0743 -1.9972 0.9711
-1.8544 -6.8167 -1.9999 0.9711
-0.6143 -7.0443 -2.0018 0.9710
0.0165 -7.0744 -2.0027 0.9710
0.6477 -7.0479 -2.0036 0.9710
1.2743 -6.9652 -2.0045 0.9710
4.1658 -5.7433 -2.0085 0.9709
4.6629 -5.3506 -2.0092 0.9709
5.1231 -4.9148 -2.0098 0.9709
5.5425 -4.4394 -2.0103 0.9709
5.9176 -3.9282 -2.0107 0.9709
6.2456 -3.3854 -2.0111 0.9709
6.5235 -2.8152 -2.0114 0.9709
6.9211 -1.6116 -2.0117 0.9709
7.0973 -0.3562 -2.0117 0.9709
7.1003 0.2782 -2.0116 0.9709
7.0464 0.9104 -2.0114 0.9709
6.9361 1.5350 -2.0111 0.9709
5.5858 4.3743 -2.0085 0.9709
5.1715 4.8534 -2.0078 0.9709
4.7162 5.2933 -2.0070 0.9710
4.2236 5.6906 -2.0062 0.9710
3.6976 6.0421 -2.0054 0.9710
3.1426 6.3450 -2.0045 0.9710
0.7240 7.0303 -2.0008 0.9710
0.0940 7.0636 -1.9998 0.9711
-0.5362 7.0405 -1.9989 0.9711
-2.3779 6.6386 -1.9963 0.9711
-3.5168 6.1057 -1.9947 0.9711
-4.5426 5.3800 -1.9933 0.9712
-5.0029 4.9519 -1.9928 0.9712
-6.1313 3.4484 -1.9914 0.9712
-6.4135 2.8874 -1.9911 0.9712
-6.6447 2.3035 -1.9909 0.9712
-6.8232 1.7016 -1.9908 0.9712
-6.9476 1.0862 -1.9907 0.9712
-7.0169 0.4622 -1.9907 0.9712
-7.0306 -0.1655 -1.9909 0.9712
-6.8909 -1.4124 -1.9913 0.9712
-6.7387 -2.0218 -1.9917 0.9712
-6.5329 -2.6154 -1.9921 0.9712
-5.9674 -3.7365 -1.9932 0.9712
-5.6122 -4.2552 -1.9938 0.9711
-4.7702 -5.1884 -1.9953 0.9711
-4.2902 -5.5954 -1.9960 0.9711
-3.7756 -5.9583 -1.9969 0.9711
-1.4562 -6.9149 -2.0005 0.9711
-0.8340 -7.0206 -2.0014 0.9710
1.0559 -7.0005 -2.0042 0.9710
2.2849 -6.7074 -2.0060 0.9710
2.8753 -6.4795 -2.0068 0.9710
3.4431 -6.1996 -2.0076 0.9709
6.1364 -3.5786 -2.0110 0.9709
6.4321 -3.0175 -2.0113 0.9709
6.6764 -2.4321 -2.0115 0.9709
7.0717 0.6898 -2.0115 0.9709
6.9811 1.3176 -2.0112 0.9709
6.8346 1.9347 -2.0108 0.9709
6.3792 3.1168 -2.0099 0.9709
6.0740 3.6724 -2.0094 0.9709
5.7204 4.1982 -2.0087 0.9709
5.3213 4.6900 -2.0080 0.9709
4.8800 5.1441 -2.0073 0.9710
4.4000 5.5567 -2.0065 0.9710
3.8852 5.9245 -2.0057 0.9710
3.3398 6.2447 -2.0048 0.9710
2.7683 6.5148 -2.0039 0.9710
2.1752 6.7326 -2.0030 0.9710
0.9434 7.0054 -2.0011 0.9710
0.3147 7.0583 -2.0002 0.9711
-0.3160 7.0550 -1.9992 0.9711
-0.9436 6.9955 -1.9983 0.9711
-2.1696 6.7107 -1.9966 0.9711
-3.3248 6.2134 -1.9950 0.9711
-5.2809 4.6525 -1.9924 0.9712
-6.0209 3.6385 -1.9915 0.9712
-6.3204 3.0865 -1.9912 0.9712
-6.5697 2.5102 -1.9910 0.9712
-6.9990 0.6812 -1.9907 0.9712
-7.0321 0.0542 -1.9908 0.9712
-7.0095 -0.5733 -1.9910 0.9712
-6.9313 -1.1964 -1.9912 0.9712
-6.7981 -1.8101 -1.9915 0.9712
-6.3711 -2.9905 -1.9924 0.9712
-6.0807 -3.5478 -1.9930 0.9712
-5.7417 -4.0773 -1.9936 0.9711
-4.9294 -5.0361 -1.9950 0.9711
-4.4623 -5.4579 -1.9958 0.9711
-3.9593 -5.8365 -1.9966 0.9711
-2.8618 -6.4528 -1.9983 0.9711
-2.2759 -6.6854 -1.9992 0.9711
-1.0528 -6.9899 -2.0011 0.9710
0.8365 -7.0290 -2.0039 0.9710
2.0739 -6.7745 -2.0057 0.9710
2.6710 -6.5653 -2.0065 0.9710
3.2472 -6.3034 -2.0073 0.9710
4.8051 -5.2241 -2.0094 0.9709
5.2534 -4.7761 -2.0099 0.9709
5.6599 -4.2895 -2.0104 0.9709
6.0212 -3.7684 -2.0109 0.9709
6.8067 -2.0406 -2.0116 0.9709
6.9619 -1.4255 -2.0117 0.9709
