ply
format ascii 1.0
element vertex 1555
property float32 x
property float32 y
property float32 z
property float32 I
end_header
-13.6453 -9.8608 -1.9998 0.9344
-8.6275 -12.9477 -1.8482 0.9393
-7.4390 -13.6669 -1.8483 0.9392
-6.1909 -14.2774 -1.8485 0.9392
3.6136 -16.4649 -2.0024 0.9344
5.0683 -16.0786 -2.0026 0.9343
11.5201 -12.3183 -2.0034 0.9343
12.5738 -11.2425 -2.0036 0.9343
15.1038 -7.5136 -2.0039 0.9343
16.1994 -4.7107 -2.0040 0.9343
16.7790 -1.7575 -2.0040 0.9343
16.6449 2.7473 -2.0039 0.9343
13.5166 7.7540 -1.8510 0.9392
11.9221 10.0308 -1.8508 0.9392
9.9485 11.9875 -1.8504 0.9392
2.9185 11.6166 -1.4228 0.9529
0.7864 11.6294 -1.3846 0.9541
-0.2510 11.5152 -1.3682 0.9547
-1.2665 11.3524 -1.3569 0.9550
-2.2788 11.2171 -1.3596 0.9549
-3.2656 10.9538 -1.3577 0.9550
-11.4306 10.5463 -1.8474 0.9393
-16.8224 0.5162 -1.9992 0.9345
-16.8016 -0.9864 -1.9992 0.9345
-16.6470 -2.4811 -1.9993 0.9345
-16.3599 -3.9561 -1.9993 0.9344
-15.9424 -5.3998 -1.9994 0.9344
-13.9464 -9.4295 -1.9998 0.9344
-11.8866 -11.5989 -1.9728 0.9353
-7.5985 -12.9773 -1.7863 0.9412
-6.6337 -14.0765 -1.8485 0.9392
-4.0523 -15.1253 -1.8600 0.9389
-2.8840 -16.5569 -1.9963 0.9345
-1.3994 -16.7927 -2.0016 0.9344
0.1040 -16.8523 -2.0019 0.9344
1.6069 -16.7777 -2.0021 0.9344
4.5633 -16.2286 -2.0025 0.9343
12.2161 -11.6295 -2.0035 0.9343
13.2055 -10.4942 -2.0036 0.9343
14.8615 -7.9817 -2.0038 0.9343
15.5147 -6.6246 -2.0039 0.9343
16.0442 -5.2145 -2.0040 0.9343
16.4457 -3.7627 -2.0040 0.9343
16.7159 -2.2809 -2.0040 0.9343
16.8527 -0.7808 -2.0040 0.9343
16.8550 0.7255 -2.0040 0.9343
16.4571 3.7085 -2.0039 0.9343
16.0601 5.1614 -2.0038 0.9343
15.5235 6.5682 -2.0022 0.9344
13.0433 8.5250 -1.8509 0.9392
12.2300 9.6537 -1.8508 0.9392
10.3185 11.6712 -1.8505 0.9392
7.5693 12.4762 -1.7334 0.9429
5.6897 11.5999 -1.5347 0.9493
4.4491 11.5838 -1.4740 0.9512
2.2118 11.6208 -1.4052 0.9535
0.1095 11.5821 -1.3759 0.9544
-2.9207 11.0465 -1.3573 0.9550
-4.2270 11.6596 -1.4732 0.9513
-6.7847 11.6750 -1.6040 0.9471
-10.0802 11.8456 -1.8476 0.9393
-11.0958 10.8985 -1.8475 0.9393
-12.0229 9.8648 -1.8474 0.9393
-12.8542 8.7526 -1.8473 0.9393
-15.3405 6.8355 -1.9950 0.9346
-15.9234 5.4517 -1.9993 0.9345
-16.6382 2.5356 -1.9992 0.9345
-16.8242 -0.4609 -1.9992 0.9345
-16.7163 -1.9598 -1.9993 0.9345
-16.4753 -3.4431 -1.9993 0.9344
-15.6027 -6.3161 -1.9995 0.9344
-14.9780 -7.6830 -1.9996 0.9344
-9.4187 -12.3828 -1.8480 0.9393
-8.2774 -13.1747 -1.8482 0.9392
-7.0700 -13.8619 -1.8484 0.9392
-3.3271 -16.1064 -1.9536 0.9359
-1.9233 -16.7401 -2.0016 0.9344
-0.4225 -16.8467 -2.0018 0.9344
1.0819 -16.8191 -2.0020 0.9344
2.5780 -16.6573 -2.0022 0.9344
5.4977 -15.9374 -2.0026 0.9343
6.8980 -15.3850 -2.0028 0.9343
8.2435 -14.7097 -2.0030 0.9343
12.8710 -10.9014 -2.0036 0.9343
13.7928 -9.7106 -2.0037 0.9343
14.6046 -8.4420 -2.0038 0.9343
15.3000 -7.1060 -2.0039 0.9343
16.3200 -4.2746 -2.0040 0.9343
16.6364 -2.8020 -2.0040 0.9343
16.8201 -1.3070 -2.0040 0.9343
16.8695 0.1985 -2.0040 0.9343
16.5651 3.1925 -2.0039 0.9343
15.7330 6.0845 -2.0038 0.9343
14.7157 7.2604 -1.9492 0.9360
12.5260 9.2671 -1.8509 0.9392
10.6784 11.3435 -1.8506 0.9392
9.2068 11.7195 -1.7703 0.9417
6.1452 11.5971 -1.5590 0.9485
4.8784 11.6048 -1.4953 0.9506
3.7022 11.6118 -1.4477 0.9521
-0.5575 11.4583 -1.3627 0.9548
-2.5756 11.1386 -1.3580 0.9550
-3.8185 11.6572 -1.4571 0.9518
-5.0125 11.6643 -1.5081 0.9501
-7.7031 11.6430 -1.6583 0.9453
-9.7054 12.1551 -1.8477 0.9393
-10.7502 11.2401 -1.8475 0.9393
-12.5747 9.1501 -1.8473 0.9393
-14.7179 7.1173 -1.9420 0.9363
-15.7455 5.9466 -1.9993 0.9344
-16.2128 4.5184 -1.9992 0.9345
-16.5509 3.0543 -1.9992 0.9345
-16.5747 -2.9267 -1.9993 0.9344
-16.2481 -4.3935 -1.9994 0.9344
-15.7921 -5.8255 -1.9994 0.9344
-15.2104 -7.2112 -1.9995 0.9344
-14.5074 -8.5396 -1.9997 0.9344
-11.2793 -11.6128 -1.9230 0.9369
-6.2541 -14.2497 -1.8485 0.9392
-4.9587 -14.7523 -1.8487 0.9392
-3.7200 -15.5407 -1.8982 0.9377
-2.4453 -16.6712 -2.0015 0.9344
-0.9487 -16.8247 -2.0017 0.9344
2.0562 -16.7291 -2.0021 0.9344
6.4137 -15.5925 -2.0027 0.9343
13.4824 -10.1365 -2.0037 0.9343
14.3335 -8.8940 -2.0038 0.9343
15.0703 -7.5805 -2.0039 0.9343
15.6869 -6.2062 -2.0039 0.9343
16.5407 -3.3204 -2.0040 0.9343
16.8675 -0.3287 -2.0040 0.9343
16.8294 1.1772 -2.0040 0.9343
16.6569 2.6735 -2.0039 0.9343
15.2133 6.9235 -1.9855 0.9349
13.5508 7.6941 -1.8510 0.9392
12.8097 8.8715 -1.8509 0.9392
10.0016 11.9434 -1.8505 0.9392
8.1314 11.6883 -1.6913 0.9443
6.6156 11.5943 -1.5857 0.9476
5.3098 11.6022 -1.5156 0.9499
4.1052 11.6094 -1.4627 0.9516
0.8381 11.6291 -1.3850 0.9541
-0.2001 11.5247 -1.3692 0.9546
-1.2160 11.3550 -1.3565 0.9550
-2.2296 11.2300 -1.3600 0.9549
-3.2167 10.9670 -1.3576 0.9550
-4.5853 11.6618 -1.4885 0.9508
-4.3303 8.6546 -1.1495 0.9618
-7.2118 11.6776 -1.6303 0.9462
-6.5988 8.8158 -1.3080 0.9566
-10.3940 11.5708 -1.8476 0.9393
-12.2829 9.5387 -1.8473 0.9393
-13.8498 7.2398 -1.8564 0.9390
-15.5522 6.4357 -1.9993 0.9344
-16.0638 5.0227 -1.9993 0.9345
-16.8200 0.5907 -1.9992 0.9345
-16.6579 -2.4073 -1.9993 0.9345
-14.7668 -8.0821 -1.9996 0.9344
-13.0976 -10.5786 -1.9999 0.9344
-11.9948 -11.6012 -1.9822 0.9350
-5.4170 -14.5896 -1.8486 0.9392
-4.1074 -15.0634 -1.8546 0.9390
-2.9559 -16.5364 -1.9954 0.9346
0.0293 -16.8525 -2.0018 0.9344
4.4914 -16.2485 -2.0025 0.9343
9.8935 -13.6570 -2.0032 0.9343
12.1644 -11.6835 -2.0035 0.9343
13.1589 -10.5526 -2.0036 0.9343
14.0484 -9.3374 -2.0037 0.9343
14.8259 -8.0475 -2.0038 0.9343
16.0210 -5.2855 -2.0040 0.9343
16.4288 -3.8356 -2.0040 0.9343
16.8581 0.6507 -2.0040 0.9343
16.4734 3.6356 -2.0039 0.9343
16.0828 5.0902 -2.0038 0.9343
15.5640 6.5041 -2.0037 0.9343
14.1599 7.4647 -1.9014 0.9376
12.2727 9.5995 -1.8508 0.9392
11.3667 10.6550 -1.8507 0.9392
10.3702 11.6254 -1.8505 0.9392
7.6101 12.4190 -1.7301 0.9430
2.2651 11.6205 -1.4063 0.9534
1.2041 11.6269 -1.3885 0.9540
-0.8617 11.4019 -1.3582 0.9550
-1.8821 11.3208 -1.3632 0.9548
-2.8718 11.0596 -1.3573 0.9550
-4.1686 11.6593 -1.4708 0.9513
-5.3885 11.6666 -1.5265 0.9496
-6.7154 11.6746 -1.5998 0.9472
-10.0276 11.8902 -1.8476 0.9393
-11.9791 9.9179 -1.8474 0.9393
-13.5493 7.6310 -1.8472 0.9393
-15.3025 6.9000 -1.9940 0.9346
-16.3280 4.0820 -1.9992 0.9345
-16.6268 2.6093 -1.9992 0.9345
-16.8260 -0.3864 -1.9992 0.9345
-16.7248 -1.8858 -1.9993 0.9345
-16.4904 -3.3701 -1.9993 0.9344
-15.6305 -6.2469 -1.9995 0.9344
-15.0118 -7.6166 -1.9996 0.9344
-14.2735 -8.9257 -1.9997 0.9344
-13.4214 -10.1640 -1.9998 0.9344
-7.1313 -13.8304 -1.8484 0.9392
-5.8699 -14.4128 -1.8486 0.9392
-3.3823 -16.0153 -1.9444 0.9362
-1.9975 -16.7313 -2.0016 0.9344
5.4270 -15.9615 -2.0026 0.9343
8.1783 -14.7460 -2.0030 0.9343
9.4618 -13.9590 -2.0031 0.9343
12.8225 -10.9584 -2.0036 0.9343
13.7496 -9.7715 -2.0037 0.9343
15.8478 -5.7834 -2.0039 0.9343
16.3009 -4.3470 -2.0040 0.9343
16.8141 -1.3814 -2.0040 0.9343
16.7917 1.6280 -2.0040 0.9343
16.2342 4.5854 -2.0038 0.9343
15.7599 6.0148 -2.0038 0.9343
14.7892 7.2154 -1.9547 0.9359
13.3394 8.0545 -1.8510 0.9392
12.5670 9.2116 -1.8509 0.9392
10.7286 11.2961 -1.8506 0.9392
9.2906 11.7190 -1.7764 0.9415
3.7588 11.6115 -1.4498 0.9520
1.5724 11.6247 -1.3934 0.9538
0.5244 11.6108 -1.3806 0.9543
-0.5070 11.4677 -1.3635 0.9548
-1.5229 11.3394 -1.3590 0.9550
-2.5266 11.1516 -1.3582 0.9550
-3.7613 11.6568 -1.4550 0.9519
-4.9512 11.6640 -1.5052 0.9502
-6.2367 11.6717 -1.5720 0.9481
-7.6372 11.6552 -1.6552 0.9454
-11.6636 10.2876 -1.8474 0.9393
-13.3046 8.0506 -1.8472 0.9393
-15.7190 6.0163 -1.9993 0.9344
-16.1926 4.5902 -1.9992 0.9345
-16.5372 3.1276 -1.9992 0.9345
-15.8178 -5.7554 -1.9994 0.9344
-15.2421 -7.1438 -1.9995 0.9344
-14.5451 -8.4753 -1.9997 0.9344
-11.3751 -11.6080 -1.9305 0.9366
-9.8540 -12.0385 -1.8480 0.9393
-8.7418 -12.8706 -1.8481 0.9393
-6.3171 -14.2218 -1.8485 0.9392
-5.0240 -14.7301 -1.8487 0.9392
-2.5187 -16.6582 -2.0012 0.9344
-1.0232 -16.8202 -2.0017 0.9344
0.4812 -16.8462 -2.0019 0.9344
1.9821 -16.7380 -2.0021 0.9344
6.3446 -15.6207 -2.0027 0.9343
7.7133 -14.9939 -2.0029 0.9343
10.2563 -13.3871 -2.0033 0.9343
12.4736 -11.3533 -2.0035 0.9343
13.4373 -10.1961 -2.0037 0.9343
14.2939 -8.9575 -2.0038 0.9343
15.0366 -7.6471 -2.0038 0.9343
15.6593 -6.2756 -2.0039 0.9343
16.1570 -4.8540 -2.0040 0.9343
16.5258 -3.3936 -2.0040 0.9343
16.8659 -0.4034 -2.0040 0.9343
16.6686 2.5997 -2.0039 0.9343
16.3698 4.0760 -2.0039 0.9343
15.9404 5.5196 -2.0038 0.9343
15.2648 6.8655 -1.9882 0.9348
13.5849 7.6339 -1.8510 0.9392
12.8489 8.8147 -1.8509 0.9392
8.9523 12.7472 -1.8503 0.9392
7.0736 -12.2378 -2.0028 0.9445
11.6685 -7.9852 -2.0034 0.9445
12.3347 -6.9129 -2.0035 0.9445
12.9026 -5.7853 -2.0035 0.9445
13.3675 -4.6115 -2.0036 0.9445
14.1118 -0.9080 -2.0036 0.9445
14.1364 0.3543 -2.0036 0.9445
14.0483 1.6137 -2.0036 0.9445
13.8480 2.8603 -2.0035 0.9445
13.1186 5.2749 -2.0034 0.9445
10.3955 7.9068 -1.8506 0.9486
9.6482 8.8020 -1.8505 0.9486
8.8240 9.6267 -1.8503 0.9486
5.9591 11.6167 -1.8499 0.9486
4.8988 12.1008 -1.8497 0.9486
2.4285 11.6195 -1.6819 0.9532
1.3632 11.6259 -1.6586 0.9538
-3.1079 12.6712 -1.8486 0.9487
-8.2724 10.0825 -1.8479 0.9487
-9.9311 8.4513 -1.8477 0.9487
-12.7862 5.9748 -1.9997 0.9446
-13.2678 4.8104 -1.9997 0.9446
-13.9110 2.3764 -1.9996 0.9446
-14.0440 -1.3913 -1.9996 0.9446
-13.0560 -5.0143 -1.9816 0.9451
-12.6724 -6.2155 -1.9999 0.9446
-12.0681 -7.3215 -2.0000 0.9446
-10.5765 -9.3503 -2.0002 0.9446
-9.7010 -10.2571 -2.0004 0.9446
-8.7481 -11.0824 -2.0005 0.9446
-7.7254 -11.8194 -2.0007 0.9446
-5.5033 -13.0061 -2.0010 0.9445
-4.3217 -13.4463 -2.0012 0.9445
-1.8641 -14.0027 -2.0015 0.9445
-0.6078 -14.1145 -2.0017 0.9445
4.3680 -13.4405 -2.0024 0.9445
5.5498 -12.9984 -2.0026 0.9445
7.7722 -11.8072 -2.0029 0.9445
8.7950 -11.0677 -2.0030 0.9445
9.7477 -10.2397 -2.0031 0.9445
10.6228 -9.3300 -2.0032 0.9445
12.1126 -7.2948 -2.0034 0.9445
13.2168 -5.0269 -2.0036 0.9445
13.6127 -3.8281 -2.0036 0.9445
13.9001 -2.5986 -2.0036 0.9445
14.0765 -1.3485 -2.0036 0.9445
14.0919 1.1741 -2.0036 0.9445
13.6584 3.6590 -2.0035 0.9445
13.2771 4.8625 -2.0034 0.9445
12.7900 6.0271 -2.0033 0.9445
10.6377 7.5783 -1.8506 0.9486
9.9187 8.4964 -1.8505 0.9486
9.1207 9.3466 -1.8504 0.9486
7.3138 10.8168 -1.8501 0.9486
5.2746 11.9422 -1.8498 0.9486
-0.3525 11.4964 -1.6297 0.9546
-1.5616 12.9545 -1.8488 0.9487
-2.7106 12.7625 -1.8486 0.9487
-4.9343 12.0758 -1.8483 0.9487
-4.4522 8.6103 -1.3734 0.9616
-8.8432 9.5851 -1.8478 0.9487
-11.8577 7.3961 -1.9801 0.9451
-12.5935 6.3714 -1.9997 0.9446
-13.1112 5.2226 -1.9997 0.9446
-13.5245 4.0323 -1.9996 0.9446
-13.8300 2.8098 -1.9996 0.9446
-13.2419 -4.6163 -1.9870 0.9449
-12.8602 -5.8165 -1.9999 0.9446
-12.2908 -6.9407 -2.0000 0.9446
-11.6233 -8.0098 -2.0001 0.9446
-10.0165 -9.9488 -2.0003 0.9446
-8.0906 -11.5719 -2.0006 0.9446
-5.9068 -12.8275 -2.0009 0.9445
-4.7395 -13.3043 -2.0011 0.9445
-3.5343 -13.6752 -2.0013 0.9445
1.4717 -14.0528 -2.0020 0.9445
8.4447 -11.3368 -2.0030 0.9445
10.3259 -9.6572 -2.0032 0.9445
11.1467 -8.6981 -2.0033 0.9445
12.5158 -6.5797 -2.0035 0.9445
13.4864 -4.2514 -2.0036 0.9445
13.8121 -3.0316 -2.0036 0.9445
13.7662 3.2306 -2.0035 0.9445
13.4227 4.4454 -2.0034 0.9445
12.9722 5.6247 -2.0034 0.9445
11.2075 7.4677 -1.9082 0.9470
10.1795 8.1826 -1.8505 0.9486
9.4085 9.0573 -1.8504 0.9486
7.6484 10.5833 -1.8501 0.9486
6.6734 11.2225 -1.8500 0.9486
4.5724 12.2275 -1.8497 0.9486
0.0069 11.5631 -1.6384 0.9544
-1.0118 11.3740 -1.6179 0.9549
-2.3106 12.8413 -1.8487 0.9487
-3.4465 12.5830 -1.8485 0.9487
-4.1390 8.6571 -1.3596 0.9620
-6.6533 11.2189 -1.8481 0.9487
-9.3842 9.0554 -1.8477 0.9487
-10.1539 8.1818 -1.8476 0.9487
-12.3884 6.7618 -1.9998 0.9446
-12.9417 5.6297 -1.9997 0.9446
-13.7356 3.2406 -1.9996 0.9446
-13.9697 2.0025 -1.9996 0.9446
-14.1034 -0.5115 -1.9996 0.9446
-14.0018 -1.7674 -1.9996 0.9446
-13.4657 -4.2274 -1.9998 0.9446
-12.5014 -6.5532 -1.9999 0.9446
-11.8677 -7.6426 -2.0000 0.9446
-8.4480 -11.3132 -2.0006 0.9446
-6.3029 -12.6330 -2.0004 0.9446
-5.1527 -13.1493 -2.0011 0.9445
-3.9597 -13.5577 -2.0012 0.9445
-2.7348 -13.8581 -2.0014 0.9445
-1.4880 -14.0480 -2.0016 0.9445
-0.2291 -14.1261 -2.0018 0.9445
2.2848 -13.9445 -2.0021 0.9445
4.7269 -13.3189 -2.0025 0.9445
9.0887 -10.8281 -2.0031 0.9445
10.8693 -9.0419 -2.0033 0.9445
11.6330 -8.0368 -2.0034 0.9445
12.8768 -5.8424 -2.0035 0.9445
14.1076 -0.9705 -2.0036 0.9445
14.1379 0.2917 -2.0036 0.9445
14.0553 1.5515 -2.0036 0.9445
13.8606 2.7989 -2.0035 0.9445
13.5553 4.0239 -2.0035 0.9445
11.6853 7.2694 -1.9499 0.9459
10.4304 7.8607 -1.8506 0.9486
9.6871 8.7592 -1.8505 0.9486
8.8666 9.5876 -1.8503 0.9486
7.0210 11.0088 -1.8500 0.9486
4.9524 12.0791 -1.8497 0.9486
3.5894 11.6125 -1.7222 0.9521
-0.6582 11.4397 -1.6236 0.9548
-3.0518 12.6849 -1.8486 0.9487
-5.2562 11.9388 -1.8483 0.9487
-6.2997 11.4216 -1.8481 0.9487
-8.2276 10.1191 -1.8479 0.9487
-9.0969 9.3443 -1.8478 0.9487
-9.8935 8.4953 -1.8477 0.9487
-12.1497 7.1330 -1.9962 0.9447
-12.7596 6.0314 -1.9997 0.9446
-13.2464 4.8691 -1.9997 0.9446
-13.9004 2.4380 -1.9996 0.9446
-14.1124 -0.0706 -1.9996 0.9446
-13.8758 -2.5771 -1.9997 0.9446
-13.5910 -3.8046 -1.9997 0.9446
-11.4046 -8.3187 -2.0001 0.9446
-10.6178 -9.3034 -2.0002 0.9446
-9.7463 -10.2140 -2.0004 0.9446
-8.7971 -11.0434 -2.0005 0.9446
-7.7776 -11.7850 -2.0007 0.9446
-6.6935 -12.4282 -2.0001 0.9446
-3.1664 -13.7655 -2.0014 0.9445
0.5911 -14.1164 -2.0019 0.9445
3.0904 -13.7891 -2.0022 0.9445
4.3084 -13.4597 -2.0024 0.9445
6.6324 -12.4820 -2.0027 0.9445
7.7198 -11.8415 -2.0029 0.9445
12.6879 -6.2418 -2.0035 0.9445
13.1944 -5.0854 -2.0036 0.9445
13.5957 -3.8883 -2.0036 0.9445
13.8885 -2.6602 -2.0036 0.9445
14.0704 -1.4108 -2.0036 0.9445
14.1401 -0.1502 -2.0036 0.9445
12.0983 7.0118 -1.9813 0.9451
9.1621 9.3061 -1.8504 0.9486
8.2949 10.0855 -1.8502 0.9486
7.3617 10.7844 -1.8501 0.9486
6.3699 11.3971 -1.8499 0.9486
5.3275 11.9188 -1.8498 0.9486
2.8640 11.6169 -1.6953 0.9528
0.7347 11.6297 -1.6511 0.9540
-1.5042 12.9613 -1.8488 0.9487
-4.4041 8.6104 -1.3703 0.9617
-6.9515 11.0362 -1.8481 0.9487
-6.6880 8.7718 -1.5629 0.9564
-8.8007 9.6242 -1.8478 0.9487
-10.3695 7.9065 -1.8476 0.9487
-11.7541 7.4040 -1.9683 0.9454
-13.0879 5.2806 -1.9997 0.9446
-13.8175 2.8711 -1.9996 0.9446
-14.0184 1.6272 -1.9996 0.9446
-14.1077 0.3703 -1.9996 0.9446
-14.0846 -0.8895 -1.9996 0.9446
-13.2718 -4.5609 -1.9884 0.9449
-12.3214 -6.8862 -2.0000 0.9446
-11.6587 -7.9582 -2.0001 0.9446
-10.9031 -8.9669 -2.0002 0.9446
-10.0604 -9.9043 -2.0003 0.9446
-9.1376 -10.7629 -2.0005 0.9446
-8.1418 -11.5359 -2.0006 0.9446
-7.0791 -12.2139 -2.0002 0.9446
-4.7984 -13.2831 -2.0011 0.9445
7.3459 -12.0766 -2.0028 0.9445
9.3760 -10.5807 -2.0031 0.9445
11.1080 -8.7474 -2.0033 0.9445
12.4865 -6.6351 -2.0035 0.9445
13.4675 -4.3112 -2.0036 0.9445
13.7985 -3.0928 -2.0036 0.9445
14.1286 -0.5919 -2.0036 0.9445
14.0086 1.9278 -2.0036 0.9445
13.4423 4.3859 -2.0035 0.9445
12.4104 6.6837 -1.9972 0.9446
11.2893 7.4502 -1.9165 0.9468
10.2157 8.1374 -1.8505 0.9486
9.4486 9.0156 -1.8504 0.9486
7.6952 10.5494 -1.8501 0.9486
6.7231 11.1928 -1.8500 0.9486
5.6975 11.7469 -1.8498 0.9486
4.6266 12.2072 -1.8497 0.9486
3.2515 11.6146 -1.7089 0.9524
-2.2537 12.8515 -1.8487 0.9487
-3.3907 12.5982 -1.8485 0.9487
-4.2822 11.6506 -1.7587 0.9511
-4.1344 8.7469 -1.3708 0.9617
-6.6035 11.2483 -1.8481 0.9487
-7.5799 10.6137 -1.8480 0.9487
-8.4958 9.8947 -1.8479 0.9487
-12.3583 6.8167 -1.9998 0.9446
-13.3721 4.5122 -1.9996 0.9446
-14.0892 0.8109 -1.9996 0.9446
-14.0095 -1.7054 -1.9996 0.9446
-13.8018 -2.9483 -1.9997 0.9446
-13.0593 -5.3540 -1.9998 0.9446
-12.5302 -6.4978 -1.9999 0.9446
-11.9014 -7.5899 -2.0000 0.9446
-11.1776 -8.6217 -2.0001 0.9446
-9.4692 -10.4719 -2.0004 0.9446
-7.4590 -11.9896 -2.0007 0.9446
-5.2109 -13.1263 -2.0011 0.9445
-4.0197 -13.5400 -2.0012 0.9445
-1.5502 -14.0413 -2.0016 0.9445
-0.2917 -14.1248 -2.0018 0.9445
0.9694 -14.0958 -2.0019 0.9445
2.2230 -13.9544 -2.0021 0.9445
4.6678 -13.3396 -2.0025 0.9445
9.9746 -10.0191 -2.0032 0.9445
12.8508 -5.8994 -2.0035 0.9445
13.3261 -4.7298 -2.0036 0.9445
13.6951 -3.5224 -2.0036 0.9445
14.1390 0.2290 -2.0036 0.9445
14.0620 1.4892 -2.0036 0.9445
13.8728 2.7375 -2.0035 0.9445
11.7435 7.2336 -1.9543 0.9458
9.7259 8.7162 -1.8505 0.9486
8.9090 9.5483 -1.8503 0.9486
7.0697 10.9776 -1.8501 0.9486
6.0619 11.5635 -1.8499 0.9486
3.6457 11.6122 -1.7245 0.9520
1.4677 11.6253 -1.6603 0.9538
0.4732 13.0417 -1.8491 0.9486
-0.6078 11.4490 -1.6245 0.9547
-1.8512 12.9160 -1.8488 0.9487
-3.8730 11.6488 -1.7394 0.9516
-5.2033 11.9620 -1.8483 0.9487
-7.2448 10.8456 -1.8480 0.9487
-8.1828 10.1555 -1.8479 0.9487
-9.8558 8.5390 -1.8477 0.9487
-10.5777 7.6255 -1.8476 0.9487
-12.7328 6.0878 -1.9997 0.9446
-13.2247 4.9278 -1.9997 0.9446
-14.0558 -1.2669 -1.9996 0.9446
-13.8871 -2.5155 -1.9997 0.9446
-13.6077 -3.7443 -1.9997 0.9446
-13.1386 -4.9129 -1.9875 0.9449
-11.4413 -8.2681 -2.0001 0.9446
-9.7915 -10.1707 -2.0004 0.9446
-7.8297 -11.7504 -2.0007 0.9446
-5.6183 -12.9567 -2.0010 0.9445
-4.4406 -13.4074 -2.0012 0.9445
-3.2273 -13.7512 -2.0013 0.9445
-1.9881 -13.9855 -2.0015 0.9445
1.7859 -14.0166 -2.0021 0.9445
3.0293 -13.8026 -2.0022 0.9445
5.4344 -13.0469 -2.0026 0.9445
6.5769 -12.5112 -2.0027 0.9445
7.6673 -11.8755 -2.0029 0.9445
9.6566 -10.3256 -2.0031 0.9445
10.5396 -9.4237 -2.0032 0.9445
11.3387 -8.4465 -2.0033 0.9445
12.0474 -7.4017 -2.0034 0.9445
13.1717 -5.1438 -2.0035 0.9445
13.5783 -3.9485 -2.0036 0.9445
13.8765 -2.7217 -2.0036 0.9445
14.0640 -1.4731 -2.0036 0.9445
14.1018 1.0492 -2.0036 0.9445
13.9517 2.3028 -2.0036 0.9445
13.6903 3.5379 -2.0035 0.9445
13.3198 4.7447 -2.0034 0.9445
12.1449 6.9671 -1.9838 0.9450
10.8003 7.5509 -1.8672 0.9482
9.9937 8.4083 -1.8505 0.9486
8.3395 10.0487 -1.8502 0.9486
7.4094 10.7517 -1.8501 0.9486
6.4203 11.3688 -1.8500 0.9486
5.3803 11.8951 -1.8498 0.9486
1.8380 11.6231 -1.6673 0.9536
0.7864 11.6294 -1.6515 0.9540
-3.7273 12.5024 -1.8485 0.9487
-4.8271 12.1191 -1.8483 0.9487
-6.6145 8.7556 -1.5548 0.9566
-8.7580 9.6631 -1.8478 0.9487
-9.5844 8.8429 -1.8477 0.9487
-12.5365 6.4828 -1.9997 0.9446
-13.0644 5.3386 -1.9997 0.9446
-14.0110 1.6892 -1.9996 0.9446
-14.0884 -0.8271 -1.9996 0.9446
-13.7179 -3.3173 -1.9997 0.9446
-13.3031 -4.5059 -1.9901 0.9448
-12.9112 -5.7023 -1.9999 0.9446
-11.6938 -7.9064 -2.0001 0.9446
-10.1042 -9.8596 -2.0003 0.9446
-9.1852 -10.7223 -2.0005 0.9446
-7.1334 -12.1829 -2.0003 0.9446
-6.0200 -12.7740 -2.0009 0.9445
1.3471 -14.0651 -2.0020 0.9445
2.5965 -13.8901 -2.0022 0.9445
5.0240 -13.2100 -2.0025 0.9445
6.1827 -12.7102 -2.0027 0.9445
8.3439 -11.4111 -2.0030 0.9445
11.0691 -8.7965 -2.0033 0.9445
11.8101 -7.7745 -2.0034 0.9445
12.4570 -6.6903 -2.0035 0.9445
13.4482 -4.3708 -2.0036 0.9445
13.7847 -3.1539 -2.0036 0.9445
14.0170 1.8657 -2.0036 0.9445
13.4617 4.3263 -2.0035 0.9445
11.3718 7.4325 -1.9249 0.9466
10.2517 8.0921 -1.8505 0.9486
9.4885 8.9737 -1.8504 0.9486
7.7419 10.5153 -1.8502 0.9486
5.7494 11.7216 -1.8499 0.9486
4.4491 11.5838 -1.7582 0.9511
-2.1968 12.8614 -1.8487 0.9487
-4.2224 11.6469 -1.7553 0.9512
-6.5537 11.2775 -1.8481 0.9487
-7.5329 10.6472 -1.8480 0.9487
-8.4520 9.9322 -1.8479 0.9487
-9.3037 9.1382 -1.8478 0.9487
-12.8914 5.7442 -1.9997 0.9446
-14.0855 0.8733 -1.9996 0.9446
-14.1073 -0.3865 -1.9996 0.9446
-14.0169 -1.6433 -1.9996 0.9446
-13.5026 -4.1079 -1.9997 0.9446
-13.0828 -5.2961 -1.9998 0.9446
-10.4071 -9.5389 -2.0003 0.9446
-9.5154 -10.4298 -2.0004 0.9446
-8.5478 -11.2378 -2.0006 0.9446
-5.2690 -13.1031 -2.0010 0.9445
-4.0796 -13.5220 -2.0012 0.9445
-1.6124 -14.0342 -2.0016 0.9445
-0.3542 -14.1233 -2.0018 0.9445
2.1612 -13.9640 -2.0021 0.9445
5.7825 -12.8968 -2.0026 0.9445
6.9102 -12.3306 -2.0028 0.9445
7.9831 -11.6659 -2.0029 0.9445
8.9924 -10.9081 -2.0030 0.9445
9.9301 -10.0632 -2.0032 0.9445
14.0985 -1.0955 -2.0036 0.9445
14.1399 0.1664 -2.0036 0.9445
13.8849 2.6760 -2.0035 0.9445
12.6796 6.2558 -2.0033 0.9445
11.8018 7.1976 -1.9586 0.9457
10.4997 7.7680 -1.8506 0.9486
8.9513 9.5087 -1.8503 0.9486
8.0669 10.2685 -1.8502 0.9486
7.1183 10.9462 -1.8501 0.9486
5.0592 12.0348 -1.8498 0.9486
2.5900 11.6185 -1.6866 0.9530
1.5200 11.6250 -1.6612 0.9537
-1.7940 12.9241 -1.8488 0.9487
-2.9393 12.7115 -1.8486 0.9487
-5.1502 11.9850 -1.8483 0.9487
-6.1982 11.4770 -1.8482 0.9487
-7.1967 10.8776 -1.8480 0.9487
-9.0138 9.4246 -1.8478 0.9487
-9.8179 8.5826 -1.8477 0.9487
-10.5438 7.6723 -1.8476 0.9487
-14.0613 -1.2046 -1.9996 0.9446
-13.8981 -2.4540 -1.9997 0.9446
-13.1583 -4.8539 -1.9872 0.9449
-12.7538 -6.0465 -1.9999 0.9446
-12.1643 -7.1604 -2.0000 0.9446
-9.8364 -10.1272 -2.0004 0.9446
-6.8034 -12.3685 -2.0001 0.9446
-5.6756 -12.9317 -2.0010 0.9445
-4.4999 -13.3875 -2.0012 0.9445
-3.2882 -13.7368 -2.0013 0.9445
1.7238 -14.0243 -2.0020 0.9445
2.9681 -13.8159 -2.0022 0.9445
4.1889 -13.4972 -2.0024 0.9445
5.3765 -13.0708 -2.0026 0.9445
7.6145 -11.9094 -2.0029 0.9445
8.6470 -11.1835 -2.0030 0.9445
9.6107 -10.3683 -2.0031 0.9445
10.4977 -9.4703 -2.0032 0.9445
11.3012 -8.4966 -2.0033 0.9445
12.0145 -7.4551 -2.0034 0.9445
12.6320 -6.3540 -2.0035 0.9445
13.5606 -4.0086 -2.0036 0.9445
13.8643 -2.7831 -2.0036 0.9445
14.0574 -1.5354 -2.0036 0.9445
14.1063 0.9867 -2.0036 0.9445
13.9618 2.2409 -2.0036 0.9445
12.8690 5.8567 -2.0034 0.9445
12.1890 6.9208 -1.9860 0.9449
10.8821 7.5365 -1.8755 0.9479
9.2442 9.2247 -1.8504 0.9486
8.3840 10.0117 -1.8503 0.9486
7.4570 10.7188 -1.8501 0.9486
5.4330 11.8712 -1.8498 0.9486
4.1012 11.5982 -1.7431 0.9515
1.8908 11.6228 -1.6685 0.9535
0.8381 11.6291 -1.6520 0.9540
-4.3084 8.6106 -1.3642 0.9618
-6.8535 11.0974 -1.8481 0.9487
-8.7151 9.7018 -1.8478 0.9487
-9.5452 8.8853 -1.8477 0.9487
-13.4697 4.2116 -1.9996 0.9446
-14.0920 -0.7647 -1.9996 0.9446
-13.9678 -2.0186 -1.9997 0.9446
-13.7325 -3.2565 -1.9997 0.9446
-13.3877 -4.4685 -1.9998 0.9446
-11.7287 -7.8545 -2.0001 0.9446
-10.9820 -8.8699 -2.0002 0.9446
-10.1477 -9.8147 -2.0003 0.9446
-8.2436 -11.4633 -2.0006 0.9446
-4.9158 -13.2400 -2.0011 0.9445
-3.7157 -13.6269 -2.0013 0.9445
-2.4856 -13.9052 -2.0015 0.9445
0.0246 -14.1281 -2.0018 0.9445
2.5349 -13.9014 -2.0022 0.9445
3.7651 -13.6211 -2.0023 0.9445
6.1263 -12.7374 -2.0027 0.9445
7.2386 -12.1411 -2.0028 0.9445
11.0300 -8.8454 -2.0033 0.9445
11.7755 -7.8267 -2.0034 0.9445
12.9797 -5.6103 -2.0035 0.9445
14.1228 -0.7171 -2.0036 0.9445
14.1303 0.5454 -2.0036 0.9445
13.8080 3.0473 -2.0035 0.9445
13.4807 4.2666 -2.0035 0.9445
13.0459 5.4518 -2.0034 0.9445
12.4973 6.5882 -2.0017 0.9445
10.2875 8.0466 -1.8506 0.9486
9.5281 8.9315 -1.8504 0.9486
8.6929 9.7451 -1.8503 0.9486
7.7885 10.4808 -1.8502 0.9486
6.8220 11.1329 -1.8500 0.9486
5.8014 11.6961 -1.8499 0.9486
4.5150 11.6016 -1.7639 0.9509
3.3626 11.6139 -1.7131 0.9523
1.2041 11.6269 -1.6562 0.9539
-2.1398 12.8710 -1.8487 0.9487
-3.2790 12.6278 -1.8486 0.9487
-4.1628 11.6431 -1.7520 0.9513
-4.1342 8.9509 -1.3970 0.9610
-9.2631 9.1793 -1.8478 0.9487
-10.0444 8.3161 -1.8477 0.9487
-10.8686 7.4713 -1.8687 0.9481
-12.2960 6.9251 -1.9995 0.9446
-13.3317 4.6304 -1.9996 0.9446
-14.1089 -0.3240 -1.9996 0.9446
-14.0240 -1.5813 -1.9996 0.9446
-13.5206 -4.0480 -1.9997 0.9446
-13.1062 -5.2380 -1.9998 0.9446
-11.9681 -7.4841 -2.0000 0.9446
-11.2535 -8.5223 -2.0001 0.9446
-10.4492 -9.4927 -2.0003 0.9446
-9.5615 -10.3875 -2.0004 0.9446
-7.5649 -11.9229 -2.0007 0.9446
-6.4694 -12.5467 -2.0001 0.9446
-5.3269 -13.0796 -2.0010 0.9445
-2.9188 -13.8204 -2.0014 0.9445
-0.4168 -14.1216 -2.0017 0.9445
2.0993 -13.9734 -2.0021 0.9445
3.3376 -13.7317 -2.0023 0.9445
5.7253 -12.9223 -2.0026 0.9445
6.8555 -12.3610 -2.0028 0.9445
7.9313 -11.7011 -2.0029 0.9445
12.2102 -7.1303 -2.0034 0.9445
12.7980 -6.0130 -2.0035 0.9445
14.0935 -1.1579 -2.0036 0.9445
14.1405 0.1037 -2.0036 0.9445
14.0747 1.3646 -2.0036 0.9445
13.8966 2.6144 -2.0035 0.9445
13.6076 3.8435 -2.0035 0.9445
12.7072 6.1996 -2.0033 0.9445
10.5341 7.7214 -1.8506 0.9486
9.8027 8.6298 -1.8505 0.9486
8.9933 9.4691 -1.8503 0.9486
5.1126 12.0123 -1.8498 0.9486
0.5244 11.6108 -1.6468 0.9541
-0.5070 11.4677 -1.6264 0.9547
-2.8830 12.7245 -1.8486 0.9487
-5.0971 12.0078 -1.8483 0.9487
-6.1473 11.5044 -1.8482 0.9487
-7.1485 10.9094 -1.8480 0.9487
-8.9720 9.4645 -1.8478 0.9487
-9.7798 8.6260 -1.8477 0.9487
-12.0393 7.2850 -1.9938 0.9447
-13.1806 5.0447 -1.9997 0.9446
-13.5777 3.8489 -1.9996 0.9446
-14.1121 0.1169 -1.9996 0.9446
-14.0665 -1.1423 -1.9996 0.9446
-13.9088 -2.3924 -1.9997 0.9446
-12.7804 -5.9900 -1.9999 0.9446
-12.1958 -7.1064 -2.0000 0.9446
-11.5140 -8.1663 -2.0001 0.9446
-9.8811 -10.0835 -2.0003 0.9446
-7.9335 -11.6805 -2.0006 0.9446
-2.1119 -13.9673 -2.0015 0.9445
1.6616 -14.0318 -2.0020 0.9445
2.9068 -13.8288 -2.0022 0.9445
4.1291 -13.5156 -2.0024 0.9445
6.4658 -12.5689 -2.0027 0.9445
9.5646 -10.4107 -2.0031 0.9445
10.4557 -9.5166 -2.0032 0.9445
11.2634 -8.5466 -2.0033 0.9445
12.6037 -6.4099 -2.0035 0.9445
13.1256 -5.2602 -2.0035 0.9445
13.8518 -2.8445 -2.0036 0.9445
14.1369 -0.3381 -2.0036 0.9445
14.1105 0.9242 -2.0036 0.9445
13.9716 2.1791 -2.0036 0.9445
13.7212 3.4165 -2.0035 0.9445
13.3613 4.6265 -2.0034 0.9445
12.8949 5.7996 -2.0034 0.9445
10.9614 7.5198 -1.8835 0.9477
10.0678 8.3195 -1.8505 0.9486
6.9983 -9.9407 -2.0027 0.9519
8.6541 -8.5400 -2.0030 0.9519
10.0346 -6.8671 -2.0031 0.9519
11.0958 -4.9752 -2.0033 0.9519
12.0176 -1.8602 -2.0033 0.9519
12.1356 -0.7809 -2.0033 0.9519
12.0810 1.3878 -2.0033 0.9519
11.6417 3.5121 -2.0032 0.9519
11.2816 4.5363 -2.0031 0.9519
7.5887 8.2791 -1.8502 0.9555
5.1251 9.9908 -1.8498 0.9555
4.2132 10.4073 -1.8497 0.9555
3.2679 10.7408 -1.8495 0.9555
0.3076 11.2201 -1.8491 0.9555
-0.6943 11.2020 -1.8489 0.9555
-1.6906 11.0946 -1.8488 0.9555
-2.6732 10.8988 -1.8487 0.9555
-4.5665 10.2489 -1.8484 0.9555
-5.4621 9.8001 -1.8483 0.9555
-6.3141 9.2733 -1.8482 0.9555
-7.1156 8.6727 -1.8481 0.9555
-9.9111 7.0124 -2.0001 0.9520
-10.4967 6.1002 -2.0000 0.9520
-11.4130 4.1379 -1.9999 0.9520
-11.7364 3.1034 -1.9999 0.9520
-11.9663 2.0442 -1.9999 0.9520
-12.1009 0.9687 -1.9999 0.9520
-12.0807 -1.1968 -1.9999 0.9520
-11.9260 -2.2696 -1.9999 0.9520
-10.9006 -5.3465 -2.0001 0.9520
-10.3808 -6.2978 -2.0002 0.9520
-7.5247 -9.5325 -2.0007 0.9520
-5.7120 -10.7192 -2.0009 0.9520
-4.7335 -11.1868 -2.0011 0.9519
-3.7171 -11.5653 -2.0012 0.9519
-2.6709 -11.8516 -2.0014 0.9519
0.5622 -12.1387 -2.0019 0.9519
3.7566 -11.5593 -2.0023 0.9519
4.7730 -11.1789 -2.0024 0.9519
5.7514 -10.7094 -2.0026 0.9519
6.6841 -10.1543 -2.0027 0.9519
9.1354 -8.0237 -2.0030 0.9519
10.9348 -5.3194 -2.0032 0.9519
11.3660 -4.3229 -2.0033 0.9519
11.9536 -2.2347 -2.0033 0.9519
12.1053 -1.1596 -2.0033 0.9519
11.9800 2.0865 -2.0033 0.9519
11.4180 4.1816 -2.0032 0.9519
10.9991 5.1832 -2.0031 0.9519
10.4925 6.1433 -2.0030 0.9519
6.2901 9.3027 -1.8500 0.9555
4.5364 10.2709 -1.8497 0.9555
0.6581 11.2053 -1.8491 0.9555
-3.3010 10.7247 -1.8486 0.9555
-10.3011 6.4252 -2.0001 0.9520
-10.8328 5.4806 -2.0000 0.9520
-11.8966 2.4170 -1.9999 0.9520
-12.1368 0.2648 -1.9999 0.9520
-11.9910 -1.8959 -1.9999 0.9520
-10.5723 -5.9703 -2.0002 0.9520
-6.9591 -9.9535 -2.0008 0.9520
-3.0398 -11.7621 -2.0013 0.9519
-1.9787 -11.9873 -2.0015 0.9519
3.3935 -11.6707 -2.0023 0.9519
4.4213 -11.3223 -2.0024 0.9519
6.3635 -10.3580 -2.0027 0.9519
8.1036 -9.0635 -2.0029 0.9519
8.8801 -8.3050 -2.0030 0.9519
9.5859 -7.4802 -2.0031 0.9519
10.2153 -6.5956 -2.0031 0.9519
11.8779 -2.6071 -2.0033 0.9519
12.0631 -1.5373 -2.0033 0.9519
12.1521 -0.4552 -2.0033 0.9519
11.5432 3.8229 -2.0032 0.9519
10.6795 5.8126 -2.0030 0.9519
10.0817 6.7175 -1.9958 0.9521
9.3675 7.5298 -1.9799 0.9524
7.3639 8.4795 -1.8501 0.9555
6.5778 9.1019 -1.8500 0.9555
5.7393 9.6516 -1.8499 0.9555
4.8552 10.1244 -1.8498 0.9555
3.9325 10.5163 -1.8496 0.9555
0.0067 11.2241 -1.8490 0.9555
-0.9944 11.1791 -1.8489 0.9555
-2.9644 10.8229 -1.8486 0.9555
-3.9177 10.5146 -1.8485 0.9555
-5.7228 9.6500 -1.8483 0.9555
-6.5308 9.0596 -1.8398 0.9557
-7.3455 8.4786 -1.8480 0.9555
-8.0721 7.7892 -1.8479 0.9555
-9.3185 7.5086 -1.9715 0.9526
-10.6564 5.8165 -2.0000 0.9520
-11.8154 2.7875 -1.9999 0.9520
-12.1226 0.6438 -1.9999 0.9520
-12.1318 -0.4400 -1.9999 0.9520
-11.5831 -3.6363 -2.0000 0.9520
-11.2130 -4.6552 -2.0001 0.9520
-10.7535 -5.6370 -2.0002 0.9520
-10.2083 -6.5740 -2.0002 0.9520
-8.8788 -8.2840 -2.0005 0.9520
-7.2665 -9.7310 -2.0007 0.9520
-2.3522 -11.9193 -2.0014 0.9519
-1.2798 -12.0825 -2.0016 0.9519
0.8875 -12.1195 -2.0019 0.9519
1.9651 -11.9929 -2.0021 0.9519
3.0272 -11.7708 -2.0022 0.9519
5.0711 -11.0471 -2.0025 0.9519
7.8163 -9.3121 -2.0028 0.9519
8.6162 -8.5783 -2.0030 0.9519
11.4779 -4.0166 -2.0033 0.9519
11.7906 -2.9769 -2.0033 0.9519
12.1320 -0.8346 -2.0033 0.9519
12.1580 0.2508 -2.0033 0.9519
11.6571 3.4604 -2.0032 0.9519
11.3016 4.4863 -2.0031 0.9519
8.3549 7.5545 -1.8556 0.9554
6.8591 8.8922 -1.8501 0.9555
6.0382 9.4678 -1.8499 0.9555
5.1693 9.9680 -1.8498 0.9555
0.3573 11.2187 -1.8491 0.9555
-1.6414 11.1020 -1.8488 0.9555
-3.5874 10.6321 -1.8485 0.9555
-5.4186 9.8243 -1.8483 0.9555
-6.2729 9.3012 -1.8482 0.9555
-7.0772 8.7041 -1.8481 0.9555
-8.7707 7.5311 -1.9045 0.9542
-10.9758 5.1882 -2.0000 0.9520
-11.3945 4.1884 -1.9999 0.9520
-11.7225 3.1553 -1.9999 0.9520
-11.9360 -2.2168 -1.9999 0.9520
-10.9242 -5.2982 -2.0001 0.9520
-10.4085 -6.2517 -2.0002 0.9520
-9.1331 -8.0024 -2.0004 0.9520
-8.3834 -8.7857 -2.0005 0.9520
-2.7234 -11.8396 -2.0014 0.9519
-1.6566 -12.0363 -2.0015 0.9519
0.5084 -12.1410 -2.0019 0.9519
2.6579 -11.8593 -2.0022 0.9519
5.7039 -10.7347 -2.0026 0.9519
9.7832 -7.2205 -2.0031 0.9519
11.9435 -2.2877 -2.0033 0.9519
12.1600 -0.1292 -2.0033 0.9519
12.1229 0.9560 -2.0033 0.9519
11.9891 2.0334 -2.0033 0.9519
11.7597 3.0946 -2.0032 0.9519
11.0220 5.1344 -2.0031 0.9519
6.3312 9.2748 -1.8500 0.9555
4.5819 10.2507 -1.8497 0.9555
2.6873 10.9001 -1.8494 0.9555
-1.2938 11.1482 -1.8489 0.9555
-4.1981 10.4056 -1.8485 0.9555
-4.3894 8.5817 -1.5879 0.9617
-5.9794 9.4929 -1.8482 0.9555
-11.2582 4.5424 -1.9999 0.9520
-11.6183 3.5201 -1.9999 0.9520
-12.0587 1.3997 -1.9999 0.9520
-12.1355 0.3185 -1.9999 0.9520
-11.7874 -2.9058 -2.0000 0.9520
-11.0842 -4.9542 -2.0001 0.9520
-8.6536 -8.5193 -2.0005 0.9520
-7.8597 -9.2577 -2.0006 0.9520
-7.0031 -9.9225 -2.0008 0.9520
-6.0906 -10.5084 -2.0009 0.9520
-5.1294 -11.0105 -2.0010 0.9520
-4.1271 -11.4250 -2.0012 0.9519
-3.0919 -11.7485 -2.0013 0.9519
0.1288 -12.1506 -2.0018 0.9519
1.2122 -12.0916 -2.0019 0.9519
3.3418 -11.6856 -2.0022 0.9519
6.3175 -10.3860 -2.0027 0.9519
8.0633 -9.0993 -2.0029 0.9519
9.5527 -7.5225 -2.0031 0.9519
11.2045 -4.7256 -2.0033 0.9519
12.0562 -1.5907 -2.0033 0.9519
10.1195 6.6782 -1.9974 0.9520
9.4306 7.5120 -1.9862 0.9523
6.6181 9.0727 -1.8500 0.9555
5.7820 9.6262 -1.8499 0.9555
3.9791 10.4988 -1.8496 0.9555
2.0501 11.0371 -1.8493 0.9555
1.0574 11.1751 -1.8492 0.9555
0.0564 11.2240 -1.8491 0.9555
-0.9449 11.1834 -1.8489 0.9555
-1.9385 11.0537 -1.8488 0.9555
-2.9165 10.8360 -1.8486 0.9555
-5.6800 9.6753 -1.8483 0.9555
-6.5200 9.1295 -1.8482 0.9555
-10.0655 6.7887 -2.0001 0.9520
-10.6305 5.8637 -2.0000 0.9520
-11.8029 2.8398 -1.9999 0.9520
-12.0091 1.7758 -1.9999 0.9520
-12.1196 0.6976 -1.9999 0.9520
-11.5991 -3.5850 -2.0000 0.9520
-10.7783 -5.5893 -2.0002 0.9520
-10.2373 -6.5287 -2.0002 0.9520
-9.6146 -7.4161 -2.0003 0.9520
-8.9153 -8.2446 -2.0005 0.9520
-8.1450 -9.0075 -2.0006 0.9520
-7.3095 -9.6987 -2.0007 0.9520
-6.4158 -10.3127 -2.0008 0.9520
-5.4707 -10.8446 -2.0010 0.9520
-4.4820 -11.2902 -2.0011 0.9519
-3.4574 -11.6458 -2.0013 0.9519
-2.4050 -11.9087 -2.0014 0.9519
-0.2509 -12.1484 -2.0017 0.9519
1.9119 -12.0015 -2.0020 0.9519
5.9898 -10.5781 -2.0026 0.9519
6.9099 -10.0023 -2.0027 0.9519
9.3128 -7.8172 -2.0030 0.9519
9.9734 -6.9557 -2.0031 0.9519
10.5544 -6.0386 -2.0032 0.9519
11.0513 -5.0733 -2.0032 0.9519
11.4600 -4.0674 -2.0033 0.9519
12.1282 -0.8883 -2.0033 0.9519
12.1590 0.1969 -2.0033 0.9519
11.9302 2.3541 -2.0033 0.9519
11.6724 3.4088 -2.0032 0.9519
10.3522 6.3766 -2.0030 0.9519
9.4574 7.0619 -1.9444 0.9533
8.4273 7.5524 -1.8642 0.9552
6.8984 8.8617 -1.8501 0.9555
5.2134 9.9450 -1.8498 0.9555
4.3053 10.3697 -1.8497 0.9555
3.3629 10.7115 -1.8495 0.9555
-0.5950 11.2078 -1.8490 0.9555
-3.5402 10.6480 -1.8486 0.9555
-4.4756 10.2890 -1.8484 0.9555
-5.3751 9.8482 -1.8483 0.9555
-6.2317 9.3290 -1.8482 0.9555
-10.9527 5.2367 -2.0000 0.9520
-11.3759 4.2389 -1.9999 0.9520
-11.7084 3.2073 -1.9999 0.9520
-10.9475 -5.2497 -2.0001 0.9520
-10.4361 -6.2055 -2.0002 0.9520
-9.8415 -7.1120 -2.0003 0.9520
-8.4222 -8.7484 -2.0005 0.9520
-6.7346 -10.1070 -2.0008 0.9520
-4.8324 -11.1443 -2.0011 0.9520
-3.8194 -11.5318 -2.0012 0.9519
2.6053 -11.8709 -2.0021 0.9519
3.6540 -11.5920 -2.0023 0.9519
4.6737 -11.2207 -2.0024 0.9519
5.6563 -10.7598 -2.0026 0.9519
6.5939 -10.2131 -2.0027 0.9519
7.4790 -9.5848 -2.0028 0.9519
8.3046 -8.8799 -2.0029 0.9519
10.3605 -6.3653 -2.0032 0.9519
12.1270 0.9022 -2.0033 0.9519
11.9980 1.9803 -2.0033 0.9519
11.7733 3.0425 -2.0032 0.9519
11.0446 5.0856 -2.0031 0.9519
9.8118 6.8598 -1.9723 0.9526
7.1721 8.6421 -1.8501 0.9555
6.3723 9.2467 -1.8500 0.9555
5.5217 9.7775 -1.8499 0.9555
3.6961 10.6015 -1.8496 0.9555
0.7573 11.1992 -1.8492 0.9555
-0.2446 11.2212 -1.8490 0.9555
-1.2444 11.1538 -1.8489 0.9555
-2.2342 10.9975 -1.8487 0.9555
-4.1520 10.4241 -1.8485 0.9555
-5.9373 9.5193 -1.8482 0.9555
-9.5950 7.3834 -1.9945 0.9521
-10.7839 5.5765 -2.0000 0.9520
-11.6026 3.5715 -1.9999 0.9520
-11.8748 2.5223 -1.9999 0.9520
-12.0523 1.4531 -1.9999 0.9520
-12.1340 0.3723 -1.9999 0.9520
-11.8001 -2.8535 -2.0000 0.9520
-11.1061 -4.9050 -2.0001 0.9520
-8.6912 -8.4808 -2.0005 0.9520
-7.0470 -9.8914 -2.0007 0.9520
-6.1370 -10.4812 -2.0009 0.9520
-5.1781 -10.9876 -2.0010 0.9520
-3.1439 -11.7346 -2.0013 0.9519
-1.0090 -12.1084 -2.0016 0.9519
0.0750 -12.1510 -2.0018 0.9519
2.2331 -11.9462 -2.0021 0.9519
3.2900 -11.7003 -2.0022 0.9519
6.2714 -10.4139 -2.0026 0.9519
8.8062 -8.3833 -2.0030 0.9519
10.7126 -5.7535 -2.0032 0.9519
11.1834 -4.7752 -2.0033 0.9519
11.8543 -2.7122 -2.0033 0.9519
12.1476 -0.5628 -2.0033 0.9519
12.1493 0.5229 -2.0033 0.9519
12.0541 1.6045 -2.0033 0.9519
11.8627 2.6732 -2.0033 0.9519
11.5766 3.7205 -2.0032 0.9519
11.1983 4.7381 -2.0031 0.9519
9.4345 7.4471 -1.9801 0.9524
5.8247 9.6005 -1.8499 0.9555
0.1061 11.2237 -1.8491 0.9555
-0.8953 11.1876 -1.8489 0.9555
-2.8685 10.8488 -1.8486 0.9555
-3.8244 10.5490 -1.8485 0.9555
-5.6371 9.7003 -1.8483 0.9555
-6.4795 9.1583 -1.8482 0.9555
-9.1593 7.5152 -1.9518 0.9531
-10.0354 6.8332 -2.0001 0.9520
-10.6045 5.9107 -2.0000 0.9520
-11.4854 3.9322 -1.9999 0.9520
-12.1352 -0.3325 -1.9999 0.9520
-12.0573 -1.4136 -1.9999 0.9520
-10.8030 -5.5414 -2.0002 0.9520
-10.2661 -6.4832 -2.0002 0.9520
-9.6474 -7.3734 -2.0003 0.9520
-8.9518 -8.2050 -2.0005 0.9520
-8.1847 -8.9713 -2.0006 0.9520
-7.3524 -9.6662 -2.0007 0.9520
-5.5187 -10.8202 -2.0010 0.9520
-4.5319 -11.2702 -2.0011 0.9519
-0.3047 -12.1471 -2.0017 0.9519
0.7800 -12.1268 -2.0019 0.9519
1.8588 -12.0098 -2.0020 0.9519
2.9228 -11.7970 -2.0022 0.9519
3.9636 -11.4901 -2.0023 0.9519
4.9730 -11.0916 -2.0025 0.9519
8.5398 -8.6542 -2.0029 0.9519
9.9424 -6.9998 -2.0031 0.9519
11.0287 -5.1222 -2.0032 0.9519
11.4418 -4.1182 -2.0033 0.9519
11.7637 -3.0812 -2.0033 0.9519
11.9918 -2.0197 -2.0033 0.9519
12.1241 -0.9421 -2.0033 0.9519
12.0984 1.2271 -2.0033 0.9519
10.9042 5.3799 -2.0031 0.9519
10.3804 6.3307 -2.0030 0.9519
9.4610 6.9996 -1.9388 0.9534
8.5007 7.5506 -1.8731 0.9550
7.6982 8.1776 -1.8502 0.9555
6.1219 9.4141 -1.8499 0.9555
5.2575 9.9219 -1.8498 0.9555
3.4104 10.6966 -1.8495 0.9555
1.4553 11.1306 -1.8493 0.9555
0.4567 11.2152 -1.8491 0.9555
-1.5430 11.1162 -1.8488 0.9555
-2.5282 10.9334 -1.8487 0.9555
-5.3314 9.8720 -1.8483 0.9555
-6.1903 9.3565 -1.8482 0.9555
-6.9998 8.7666 -1.8481 0.9555
-7.7534 8.1068 -1.8480 0.9555
-8.6220 7.5372 -1.8866 0.9546
-9.8095 7.1380 -1.9986 0.9520
-10.9294 5.2852 -2.0000 0.9520
-11.3570 4.2892 -1.9999 0.9520
-11.9551 -2.1110 -1.9999 0.9520
-10.9707 -5.2012 -2.0001 0.9520
-10.4635 -6.1592 -2.0002 0.9520
-9.8729 -7.0683 -2.0003 0.9520
-9.2036 -7.9212 -2.0004 0.9520
-8.4609 -8.7110 -2.0005 0.9520
-7.6506 -9.4315 -2.0007 0.9520
-5.8539 -10.6423 -2.0009 0.9520
-4.8817 -11.1228 -2.0011 0.9520
-2.8282 -11.8150 -2.0014 0.9519
-1.7632 -12.0210 -2.0015 0.9519
0.4008 -12.1449 -2.0018 0.9519
2.5527 -11.8823 -2.0021 0.9519
4.6239 -11.2413 -2.0024 0.9519
5.6086 -10.7847 -2.0026 0.9519
6.5486 -10.2421 -2.0027 0.9519
7.4365 -9.6178 -2.0028 0.9519
9.0279 -8.1443 -2.0030 0.9519
9.7188 -7.3069 -2.0031 0.9519
10.3322 -6.4112 -2.0032 0.9519
10.8631 -5.4642 -2.0032 0.9519
11.6617 -3.4473 -2.0033 0.9519
12.0888 -1.3204 -2.0033 0.9519
12.1583 -0.2369 -2.0033 0.9519
12.1309 0.8485 -2.0033 0.9519
11.7867 2.9903 -2.0032 0.9519
11.4726 4.0296 -2.0032 0.9519
11.0671 5.0366 -2.0031 0.9519
10.5733 6.0034 -2.0030 0.9519
9.8965 6.8539 -1.9832 0.9524
7.9501 7.9333 -1.8502 0.9555
6.4132 9.2184 -1.8500 0.9555
5.5650 9.7530 -1.8499 0.9555
4.6726 10.2098 -1.8497 0.9555
3.7430 10.5851 -1.8496 0.9555
0.8069 11.1957 -1.8492 0.9555
-3.1582 10.7678 -1.8486 0.9555
-4.2941 8.5821 -1.5809 0.9618
-5.8951 9.5455 -1.8482 0.9555
-8.2106 7.6430 -1.8479 0.9555
-9.5590 7.4233 -1.9938 0.9521
-11.2176 4.6420 -1.9999 0.9520
-11.5867 3.6228 -1.9999 0.9520
-12.0458 1.5065 -1.9999 0.9520
-12.1219 -0.6578 -1.9999 0.9520
-7.0907 -9.8600 -2.0007 0.9520
-6.1834 -10.4539 -2.0009 0.9520
-5.2267 -10.9646 -2.0010 0.9520
-3.1959 -11.7205 -2.0013 0.9519
-1.0627 -12.1037 -2.0016 0.9519
1.1050 -12.1018 -2.0019 0.9519
3.2381 -11.7146 -2.0022 0.9519
5.2687 -10.9545 -2.0025 0.9519
6.2253 -10.4415 -2.0026 0.9519
10.1267 -6.7308 -2.0031 0.9519
11.1621 -4.8247 -2.0033 0.9519
11.5482 -3.8099 -2.0033 0.9519
11.8421 -2.7647 -2.0033 0.9519
12.0416 -1.6975 -2.0033 0.9519
11.2192 4.6884 -2.0031 0.9519
10.7559 5.6702 -2.0031 0.9519
9.4384 7.3825 -1.9740 0.9526
8.1970 7.6838 -1.8509 0.9555
7.4760 8.3809 -1.8501 0.9555
6.6983 9.0137 -1.8500 0.9555
5.8671 9.5746 -1.8499 0.9555
4.9894 10.0591 -1.8498 0.9555
2.1477 11.0186 -1.8494 0.9555
-0.8458 11.1915 -1.8489 0.9555
-1.8404 11.0706 -1.8488 0.9555
-3.7777 10.5659 -1.8485 0.9555
-7.2322 8.5756 -1.8481 0.9555
-9.0809 7.5184 -1.9422 0.9533
-10.0050 6.8776 -2.0001 0.9520
-10.5782 5.9576 -2.0000 0.9520
-11.7773 2.9443 -1.9999 0.9520
-11.9929 1.8821 -1.9999 0.9520
-12.1129 0.8049 -1.9999 0.9520
-12.0634 -1.3602 -1.9999 0.9520
-11.8943 -2.4308 -2.0000 0.9520
-11.2738 -4.5057 -2.0001 0.9520
-10.2947 -6.4376 -2.0002 0.9520
-8.9880 -8.1653 -2.0004 0.9520
-5.5665 -10.7957 -2.0010 0.9520
-1.4403 -12.0643 -2.0016 0.9519
-0.3584 -12.1456 -2.0017 0.9519
2.8704 -11.8098 -2.0022 0.9519
3.9126 -11.5075 -2.0023 0.9519
6.8210 -10.0630 -2.0027 0.9519
7.6918 -9.4151 -2.0028 0.9519
8.5013 -8.6920 -2.0029 0.9519
9.9113 -7.0437 -2.0031 0.9519
11.0059 -5.1710 -2.0032 0.9519
11.4234 -4.1688 -2.0033 0.9519
11.7499 -3.1334 -2.0033 0.9519
12.1199 -0.9958 -2.0033 0.9519
12.1603 0.0892 -2.0033 0.9519
12.1037 1.1735 -2.0033 0.9519
11.9506 2.2483 -2.0033 0.9519
10.4084 6.2847 -2.0030 0.9519
6.9767 8.8003 -1.8501 0.9555
6.1636 9.3869 -1.8499 0.9555
5.3014 9.8985 -1.8498 0.9555
3.4577 10.6814 -1.8495 0.9555
2.4910 10.9464 -1.8494 0.9555
1.5047 11.1241 -1.8493 0.9555
-0.4957 11.2127 -1.8490 0.9555
-1.4938 11.1229 -1.8488 0.9555
-2.4797 10.9446 -1.8487 0.9555
-6.1489 9.3838 -1.8482 0.9555
-6.9048 8.7265 -1.8332 0.9559
-9.7744 7.1789 -1.9979 0.9520
-10.9059 5.3336 -2.0000 0.9520
-11.9282 2.2559 -1.9999 0.9520
-12.0819 1.1830 -1.9999 0.9520
-12.1000 -0.9826 -1.9999 0.9520
-11.9643 -2.0580 -1.9999 0.9520
-10.9936 -5.1525 -2.0001 0.9520
-9.9041 -7.0245 -2.0003 0.9520
-6.8239 -10.0468 -2.0008 0.9520
-5.9010 -10.6162 -2.0009 0.9520
-4.9309 -11.1010 -2.0011 0.9520
-1.8164 -12.0131 -2.0015 0.9519
0.3470 -12.1465 -2.0018 0.9519
3.5512 -11.6239 -2.0023 0.9519
5.5607 -10.8094 -2.0025 0.9519
6.5031 -10.2710 -2.0027 0.9519
7.3937 -9.6506 -2.0028 0.9519
8.2255 -8.9531 -2.0029 0.9519
8.9917 -8.1842 -2.0030 0.9519
9.6863 -7.3499 -2.0031 0.9519
11.2876 -4.5236 -2.0033 0.9519
11.6463 -3.4988 -2.0033 0.9519
11.9121 -2.4462 -2.0033 0.9519
12.1572 -0.2908 -2.0033 0.9519
12.0151 1.8739 -2.0033 0.9519
11.0893 4.9875 -2.0031 0.9519
10.5998 5.9565 -2.0030 0.9519
9.9656 6.8367 -1.9909 0.9522
7.2484 8.5782 -1.8501 0.9555
5.3315 -9.2238 -2.0025 0.9576
6.1333 -8.7120 -2.0026 0.9576
6.8862 -8.1306 -2.0027 0.9576
7.5843 -7.4843 -2.0028 0.9576
8.2220 -6.7783 -2.0029 0.9576
8.7941 -6.0181 -2.0029 0.9576
9.2961 -5.2099 -2.0030 0.9576
9.7240 -4.3601 -2.0030 0.9576
10.0743 -3.4754 -2.0031 0.9576
10.3443 -2.5631 -2.0031 0.9576
10.5317 -1.6302 -2.0031 0.9576
10.6352 -0.6843 -2.0031 0.9576
9.4926 4.8413 -2.0029 0.9576
9.0226 5.6685 -2.0028 0.9576
7.8646 7.1748 -2.0010 0.9576
6.9113 7.5400 -1.9225 0.9592
5.9767 7.8196 -1.8499 0.9607
4.4917 8.7561 -1.8497 0.9607
3.6926 9.1213 -1.8496 0.9607
1.1458 9.7714 -1.8492 0.9607
-1.4817 9.7241 -1.8489 0.9608
-2.3430 9.5526 -1.8487 0.9608
-3.1855 9.3050 -1.8486 0.9608
-4.0026 8.9832 -1.8485 0.9608
-5.5344 8.1282 -1.8483 0.9608
-7.3926 7.5267 -1.9830 0.9580
-8.6875 6.1466 -2.0003 0.9576
-10.6070 0.8491 -2.0001 0.9576
-10.5893 -1.0491 -2.0001 0.9576
-10.4537 -1.9894 -2.0002 0.9576
-9.9344 -3.8154 -2.0002 0.9576
-9.5548 -4.6864 -2.0003 0.9576
-9.0990 -5.5202 -2.0004 0.9576
-8.5708 -6.3100 -2.0005 0.9576
-7.9742 -7.0497 -2.0006 0.9576
-7.3140 -7.7332 -2.0007 0.9576
-2.3410 -10.3875 -2.0014 0.9576
-1.4052 -10.5557 -2.0016 0.9576
-0.4581 -10.6397 -2.0017 0.9576
0.4927 -10.6388 -2.0018 0.9576
2.3755 -10.3834 -2.0021 0.9576
3.2924 -10.1308 -2.0022 0.9576
4.1831 -9.7973 -2.0023 0.9576
8.0061 -7.0318 -2.0028 0.9576
8.6017 -6.2899 -2.0029 0.9576
9.1287 -5.4978 -2.0030 0.9576
9.5829 -4.6617 -2.0030 0.9576
9.9607 -3.7885 -2.0031 0.9576
10.6086 -1.0163 -2.0031 0.9576
10.4988 1.8285 -2.0031 0.9576
8.6782 6.1824 -2.0028 0.9576
5.5127 8.1530 -1.8499 0.9607
3.9758 9.0016 -1.8496 0.9607
2.3129 9.5636 -1.8494 0.9607
1.4505 9.7311 -1.8493 0.9607
-0.3015 9.8327 -1.8490 0.9608
-3.7200 9.1041 -1.8485 0.9608
-5.9965 7.7931 -1.8482 0.9608
-7.8810 7.1431 -1.9992 0.9576
-8.4913 6.4151 -2.0003 0.9576
-9.4954 4.8040 -2.0002 0.9576
-9.8859 3.9379 -2.0001 0.9576
-10.4280 2.1186 -2.0001 0.9576
-10.5753 1.1801 -2.0001 0.9576
-10.6385 0.2321 -2.0001 0.9576
-10.6169 -0.7177 -2.0001 0.9576
-10.5107 -1.6619 -2.0001 0.9576
-10.0486 -3.5031 -2.0002 0.9576
-9.6964 -4.3855 -2.0003 0.9576
-9.2669 -5.2331 -2.0004 0.9576
-8.1904 -6.7970 -2.0005 0.9576
-7.5519 -7.5008 -2.0006 0.9576
-5.2975 -9.2341 -2.0010 0.9576
-4.4530 -9.6704 -2.0011 0.9576
-2.6643 -10.3091 -2.0014 0.9576
-0.7903 -10.6199 -2.0016 0.9576
0.1601 -10.6488 -2.0018 0.9576
2.0499 -10.4523 -2.0020 0.9576
2.9742 -10.2285 -2.0022 0.9576
3.8749 -9.9230 -2.0023 0.9576
5.5770 -9.0777 -2.0025 0.9576
7.7824 -7.2783 -2.0028 0.9576
8.9524 -5.7802 -2.0030 0.9576
9.8375 -4.0978 -2.0031 0.9576
10.4093 -2.2848 -2.0031 0.9576
10.5509 1.4996 -2.0031 0.9576
10.3749 2.4347 -2.0030 0.9576
9.3593 5.0941 -2.0029 0.9576
8.8672 5.9083 -2.0028 0.9576
8.3045 6.6754 -2.0027 0.9576
4.2552 8.8732 -1.8497 0.9607
1.7539 9.6812 -1.8493 0.9607
0.8833 9.7984 -1.8492 0.9607
0.0058 9.8375 -1.8491 0.9608
-4.0777 8.5289 -1.7769 0.9623
-5.0161 8.4583 -1.8484 0.9608
-6.5380 7.5466 -1.8767 0.9602
-8.2868 6.6773 -2.0003 0.9576
-9.7581 4.2448 -2.0002 0.9576
-10.6341 -0.3857 -2.0001 0.9576
-10.5574 -1.3327 -2.0001 0.9576
-9.8286 -4.0804 -2.0003 0.9576
-8.9479 -5.7623 -2.0004 0.9576
-7.1041 -7.9267 -2.0007 0.9576
-6.3691 -8.5293 -2.0008 0.9576
-3.8845 -9.9130 -2.0012 0.9576
2.6531 -10.3162 -2.0021 0.9576
3.5629 -10.0390 -2.0023 0.9576
5.2905 -9.2473 -2.0025 0.9576
6.0946 -8.7390 -2.0026 0.9576
6.8501 -8.1610 -2.0027 0.9576
8.1919 -6.8146 -2.0029 0.9576
9.2729 -5.2510 -2.0030 0.9576
9.7046 -4.4031 -2.0030 0.9576
10.0588 -3.5200 -2.0031 0.9576
10.5244 -1.6768 -2.0031 0.9576
10.6320 -0.7314 -2.0031 0.9576
10.6548 0.2198 -2.0031 0.9576
10.5926 1.1693 -2.0031 0.9576
10.4459 2.1094 -2.0031 0.9576
9.9044 3.9317 -2.0030 0.9576
9.5140 4.7992 -2.0029 0.9576
8.5092 6.4128 -2.0027 0.9576
1.1891 9.7663 -1.8492 0.9607
0.3132 9.8327 -1.8491 0.9608
-1.4386 9.7307 -1.8489 0.9608
-2.3007 9.5629 -1.8487 0.9608
-3.1443 9.3190 -1.8486 0.9608
-4.7495 8.6111 -1.8484 0.9608
-8.0743 6.9331 -2.0004 0.9576
-8.6602 6.1850 -2.0003 0.9576
-9.1770 5.3878 -2.0002 0.9576
-9.6208 4.5476 -2.0002 0.9576
-9.9879 3.6713 -2.0001 0.9576
-10.2754 2.7658 -2.0001 0.9576
-10.4810 1.8383 -2.0001 0.9576
-10.6032 0.8961 -2.0001 0.9576
-10.6409 -0.0533 -2.0001 0.9576
-10.5938 -1.0022 -2.0001 0.9576
-10.2476 -2.8686 -2.0002 0.9576
-9.1234 -5.4798 -2.0004 0.9576
-8.5986 -6.2720 -2.0005 0.9576
-7.3481 -7.7007 -2.0007 0.9576
-6.6323 -8.3259 -2.0008 0.9576
-5.0481 -9.3730 -2.0010 0.9576
-3.3028 -10.1221 -2.0013 0.9576
-1.4520 -10.5493 -2.0015 0.9576
0.4456 -10.6409 -2.0018 0.9576
1.3930 -10.5594 -2.0020 0.9576
2.3294 -10.3938 -2.0021 0.9576
4.9989 -9.4079 -2.0024 0.9576
5.8185 -8.9250 -2.0026 0.9576
7.3124 -7.7500 -2.0028 0.9576
7.9748 -7.0671 -2.0028 0.9576
8.5737 -6.3279 -2.0029 0.9576
9.9438 -3.8326 -2.0031 0.9576
10.4668 -2.0048 -2.0031 0.9576
10.6565 -0.1132 -2.0031 0.9576
10.5068 1.7820 -2.0031 0.9576
10.3058 2.7120 -2.0030 0.9576
10.0225 3.6203 -2.0030 0.9576
9.6594 4.4997 -2.0029 0.9576
9.2192 5.3431 -2.0028 0.9576
8.7055 6.1439 -2.0028 0.9576
8.1224 6.8955 -2.0027 0.9576
7.4119 7.5284 -1.9857 0.9579
4.8013 8.5905 -1.8498 0.9607
4.0157 8.9840 -1.8496 0.9607
3.1981 9.3057 -1.8495 0.9607
-0.2579 9.8339 -1.8490 0.9608
-2.0008 9.6304 -1.8488 0.9608
-2.8517 9.4129 -1.8487 0.9608
-3.6797 9.1205 -1.8486 0.9608
-4.3579 8.5201 -1.7988 0.9618
-5.2410 8.3206 -1.8483 0.9608
-6.8934 7.5385 -1.9200 0.9593
-7.8471 7.1759 -1.9987 0.9576
-9.4741 4.8460 -2.0002 0.9576
-9.8683 3.9816 -2.0001 0.9576
-10.5179 -1.6153 -2.0001 0.9576
-10.3321 -2.5470 -2.0002 0.9576
-9.2900 -5.1920 -2.0004 0.9576
-5.3383 -9.2105 -2.0010 0.9576
-1.7808 -10.4985 -2.0015 0.9576
-0.8374 -10.6163 -2.0016 0.9576
2.0035 -10.4612 -2.0020 0.9576
2.9288 -10.2415 -2.0022 0.9576
3.8309 -9.9400 -2.0023 0.9576
5.5367 -9.1023 -2.0025 0.9576
6.3268 -8.5726 -2.0026 0.9576
7.0666 -7.9745 -2.0027 0.9576
7.7500 -7.3128 -2.0028 0.9576
8.3717 -6.5926 -2.0029 0.9576
9.4105 -5.0005 -2.0030 0.9576
9.8192 -4.1413 -2.0031 0.9576
10.3991 -2.3308 -2.0031 0.9576
10.5656 -1.3940 -2.0031 0.9576
10.6478 -0.4461 -2.0031 0.9576
10.6451 0.5054 -2.0031 0.9576
10.5574 1.4529 -2.0031 0.9576
10.1309 3.3055 -2.0030 0.9576
8.8933 5.8690 -2.0028 0.9576
8.3340 6.6386 -2.0027 0.9576
7.6912 7.3388 -1.9982 0.9577
5.8001 7.9514 -1.8499 0.9607
5.0675 8.4365 -1.8498 0.9607
4.2945 8.8543 -1.8497 0.9607
3.4874 9.2015 -1.8496 0.9607
1.7968 9.6734 -1.8493 0.9607
-0.8281 9.8020 -1.8489 0.9608
-2.5562 9.4976 -1.8487 0.9608
-4.0500 8.5683 -1.7814 0.9622
-4.9786 8.4805 -1.8484 0.9608
-5.7149 8.0021 -1.8483 0.9608
-7.6045 7.4034 -1.9949 0.9577
-8.2572 6.7140 -2.0003 0.9576
-8.8228 5.9506 -2.0003 0.9576
-9.3181 5.1398 -2.0002 0.9576
-9.7392 4.2880 -2.0002 0.9576
-10.0826 3.4022 -2.0001 0.9576
-10.5265 1.5566 -2.0001 0.9576
-10.4066 -2.2230 -2.0002 0.9576
-10.1671 -3.1424 -2.0002 0.9576
-9.4476 -4.8992 -2.0003 0.9576
-8.4275 -6.5004 -2.0005 0.9576
-7.8145 -7.2265 -2.0006 0.9576
-7.1391 -7.8951 -2.0007 0.9576
-6.4068 -8.5009 -2.0008 0.9576
-4.7950 -9.5052 -2.0011 0.9576
-3.9284 -9.8956 -2.0012 0.9576
-3.0303 -10.2072 -2.0013 0.9576
-0.2199 -10.6474 -2.0017 0.9576
0.7308 -10.6253 -2.0019 0.9576
1.6757 -10.5185 -2.0020 0.9576
3.5184 -10.0547 -2.0022 0.9576
5.2495 -9.2706 -2.0025 0.9576
6.0558 -8.7659 -2.0026 0.9576
6.8138 -8.1913 -2.0027 0.9576
8.7404 -6.0958 -2.0029 0.9576
10.5169 -1.7234 -2.0031 0.9576
10.6557 0.1726 -2.0031 0.9576
9.0725 5.5884 -2.0028 0.9576
7.9323 7.1089 -2.0021 0.9576
6.0458 7.7664 -1.8500 0.9607
5.3287 8.2742 -1.8498 0.9607
3.7733 9.0883 -1.8496 0.9607
2.9474 9.3880 -1.8495 0.9607
2.0982 9.6128 -1.8494 0.9607
0.3567 9.8313 -1.8491 0.9608
-1.3956 9.7370 -1.8489 0.9608
-2.2583 9.5731 -1.8487 0.9608
-6.1694 7.6568 -1.8482 0.9608
-7.2657 7.5298 -1.9668 0.9583
-8.6327 6.2234 -2.0003 0.9576
-9.6005 4.5902 -2.0002 0.9576
-9.9715 3.7155 -2.0001 0.9576
-10.4728 1.8847 -2.0001 0.9576
-10.5991 0.9430 -2.0001 0.9576
-10.5982 -0.9552 -2.0001 0.9576
-10.4709 -1.8967 -2.0001 0.9576
-10.2602 -2.8232 -2.0002 0.9576
-9.9678 -3.7272 -2.0002 0.9576
-9.5959 -4.6016 -2.0003 0.9576
-9.1475 -5.4393 -2.0004 0.9576
-7.3822 -7.6681 -2.0007 0.9576
-6.6692 -8.2964 -2.0008 0.9576
-5.9029 -8.8587 -2.0009 0.9576
-3.3476 -10.1073 -2.0013 0.9576
-1.4987 -10.5427 -2.0015 0.9576
0.3984 -10.6427 -2.0018 0.9576
2.2834 -10.4040 -2.0021 0.9576
