ply
format ascii 1.0
element vertex 1596
property float32 x
property float32 y
property float32 z
property float32 I
end_header
1.5660 4.6350 -2.0024 0.9791
1.1460 4.7548 -2.0018 0.9791
-0.5884 4.8496 -1.9994 0.9791
-1.0184 4.7764 -1.9988 0.9791
-1.4399 4.6652 -1.9982 0.9791
-1.8498 4.5170 -1.9977 0.9791
-2.6217 4.1145 -1.9968 0.9791
-2.9776 3.8634 -1.9963 0.9791
-3.8922 2.9358 -1.9953 0.9791
-4.1380 2.5766 -1.9951 0.9792
-4.5292 1.8000 -1.9947 0.9792
-4.7767 0.9666 -1.9946 0.9792
-1.9564 0.2168 -0.8056 0.9915
-1.9186 0.0404 -0.7854 0.9917
-1.9510 -0.1334 -0.8004 0.9916
-4.7271 -1.1915 -1.9952 0.9792
-4.6026 -1.6086 -1.9955 0.9791
-4.4415 -2.0130 -1.9958 0.9791
-4.2450 -2.4016 -1.9961 0.9791
-4.0147 -2.7712 -1.9965 0.9791
-3.1400 -3.7379 -1.9980 0.9791
-2.4273 -4.2386 -1.9991 0.9791
-2.0401 -4.4395 -1.9996 0.9791
-1.2196 -4.7342 -2.0008 0.9791
-0.7927 -4.8255 -2.0014 0.9791
0.0774 -4.8925 -2.0026 0.9791
0.9460 -4.8037 -2.0038 0.9791
1.3711 -4.7015 -2.0044 0.9791
2.1857 -4.3854 -2.0054 0.9790
2.9315 -3.9290 -2.0063 0.9790
3.2709 -3.6526 -2.0067 0.9790
3.8691 -3.0143 -2.0074 0.9790
4.6806 -1.4715 -2.0081 0.9790
4.9031 -0.1798 -2.0081 0.9790
4.4976 1.9543 -2.0070 0.9790
3.8174 3.0734 -2.0058 0.9790
3.5272 3.4009 -2.0053 0.9790
2.8654 3.9714 -2.0043 0.9791
2.4990 4.2100 -2.0037 0.9791
1.7102 4.5843 -2.0026 0.9791
1.2941 4.7172 -2.0020 0.9791
0.8680 4.8124 -2.0014 0.9791
0.4351 4.8691 -2.0008 0.9791
-0.8687 4.8063 -1.9990 0.9791
-2.1085 4.4014 -1.9974 0.9791
-2.4921 4.1948 -1.9969 0.9791
-2.8557 3.9549 -1.9965 0.9791
-3.5116 3.3833 -1.9957 0.9791
-4.0557 2.7047 -1.9952 0.9792
-4.2803 2.3320 -1.9949 0.9792
-4.4709 1.9407 -1.9948 0.9792
-1.9318 -0.0716 -0.7912 0.9917
-1.9522 -0.2480 -0.8054 0.9915
-4.7618 -1.0431 -1.9951 0.9792
-4.5020 -1.8731 -1.9957 0.9791
-4.3177 -2.2676 -1.9960 0.9791
-4.0990 -2.6442 -1.9964 0.9791
-3.5656 -3.3319 -1.9973 0.9791
-3.2550 -3.6376 -1.9978 0.9791
-1.7794 -4.5513 -2.0000 0.9791
-1.3668 -4.6933 -2.0006 0.9791
-0.5114 -4.8643 -2.0018 0.9791
-0.0755 -4.8921 -2.0024 0.9791
0.3612 -4.8807 -2.0030 0.9791
1.2234 -4.7416 -2.0042 0.9791
1.6419 -4.6148 -2.0047 0.9791
2.0475 -4.4511 -2.0052 0.9790
2.4369 -4.2518 -2.0057 0.9790
3.1549 -3.7528 -2.0066 0.9790
3.7728 -3.1336 -2.0073 0.9790
4.4693 -2.0236 -2.0079 0.9790
4.6323 -1.6170 -2.0081 0.9790
4.8952 -0.3329 -2.0081 0.9790
4.3761 2.2117 -2.0068 0.9790
4.1606 2.5928 -2.0064 0.9790
3.9119 2.9529 -2.0060 0.9790
3.6321 3.2893 -2.0055 0.9790
3.3234 3.5992 -2.0050 0.9790
2.9883 3.8803 -2.0045 0.9791
2.6296 4.1302 -2.0039 0.9791
2.2501 4.3471 -2.0034 0.9791
0.5871 4.8537 -2.0010 0.9791
0.1518 4.8852 -2.0004 0.9791
-0.2844 4.8779 -1.9998 0.9791
-1.1459 4.7470 -1.9986 0.9791
-1.9701 4.4655 -1.9976 0.9791
-2.7309 4.0425 -1.9966 0.9791
-3.0800 3.7820 -1.9962 0.9791
-3.4044 3.4916 -1.9959 0.9791
-3.7016 3.1735 -1.9955 0.9791
-3.9694 2.8303 -1.9952 0.9792
-4.2055 2.4646 -1.9950 0.9792
-4.4082 2.0795 -1.9948 0.9792
-4.5758 1.6779 -1.9947 0.9792
-4.7070 1.2631 -1.9946 0.9792
-1.9570 0.1639 -0.8038 0.9915
-1.9038 -0.0110 -0.7792 0.9918
-4.3862 -2.1315 -1.9959 0.9791
-4.1794 -2.5147 -1.9963 0.9791
-1.9205 -4.4930 -1.9998 0.9791
-1.5126 -4.6478 -2.0004 0.9791
-1.0923 -4.7656 -2.0010 0.9791
-0.6631 -4.8455 -2.0016 0.9791
2.3027 -4.3255 -2.0055 0.9790
3.0359 -3.8492 -2.0064 0.9790
3.6729 -3.2498 -2.0072 0.9790
3.9487 -2.9096 -2.0074 0.9790
4.1930 -2.5461 -2.0077 0.9790
4.4038 -2.1622 -2.0079 0.9790
4.5794 -1.7609 -2.0080 0.9790
4.7184 -1.3455 -2.0081 0.9790
4.8197 -0.9193 -2.0081 0.9790
4.7426 1.2520 -2.0075 0.9790
4.2398 2.4617 -2.0065 0.9790
4.0026 2.8294 -2.0061 0.9790
3.1084 3.7854 -2.0047 0.9791
2.7576 4.0465 -2.0041 0.9791
1.9936 4.4695 -2.0030 0.9791
1.1671 4.7498 -2.0018 0.9791
0.7386 4.8335 -2.0012 0.9791
0.3044 4.8786 -2.0006 0.9791
-1.8298 4.5253 -1.9978 0.9791
-2.6035 4.1262 -1.9968 0.9791
-3.2938 3.5965 -1.9960 0.9791
-3.6009 3.2878 -1.9956 0.9791
-4.3412 2.2163 -1.9949 0.9792
-4.5212 1.8201 -1.9947 0.9792
-4.6653 1.4096 -1.9946 0.9792
-4.7723 0.9878 -1.9946 0.9792
-1.9555 0.2254 -0.8056 0.9915
-1.9489 -0.1246 -0.7993 0.9916
-4.7323 -1.1705 -1.9952 0.9792
-4.4503 -1.9933 -1.9958 0.9791
-4.2556 -2.3827 -1.9961 0.9791
-2.4460 -4.2278 -1.9990 0.9791
-2.0598 -4.4303 -1.9996 0.9791
-1.2406 -4.7286 -2.0008 0.9791
0.0557 -4.8928 -2.0026 0.9791
1.3502 -4.7075 -2.0043 0.9791
1.7651 -4.5695 -2.0049 0.9791
2.5502 -4.1852 -2.0058 0.9790
2.9140 -3.9419 -2.0063 0.9790
3.2546 -3.6670 -2.0067 0.9790
3.5693 -3.3627 -2.0070 0.9790
4.1112 -2.6758 -2.0076 0.9790
4.9005 0.2365 -2.0080 0.9790
4.0893 2.7032 -2.0063 0.9790
3.2255 3.6868 -2.0049 0.9791
2.5177 4.1989 -2.0038 0.9791
1.3151 4.7115 -2.0020 0.9791
0.8893 4.8085 -2.0014 0.9791
0.4567 4.8672 -2.0008 0.9791
0.0208 4.8871 -2.0002 0.9791
-0.8474 4.8102 -1.9990 0.9791
-2.8381 3.9676 -1.9965 0.9791
-3.1800 3.6979 -1.9961 0.9791
-4.2699 2.3509 -1.9950 0.9792
-4.6191 1.5546 -1.9947 0.9792
-4.7392 1.1364 -1.9946 0.9792
-1.9432 0.2858 -0.8038 0.9915
-1.9450 0.1104 -0.7973 0.9916
-1.9284 -0.0629 -0.7897 0.9917
-4.7664 -1.0220 -1.9951 0.9792
-4.5102 -1.8531 -1.9956 0.9791
-4.3277 -2.2484 -1.9960 0.9791
-4.1107 -2.6260 -1.9964 0.9791
-3.8609 -2.9828 -1.9968 0.9791
-3.2711 -3.6231 -1.9978 0.9791
-2.5767 -4.1488 -1.9988 0.9791
0.3396 -4.8822 -2.0030 0.9791
1.2023 -4.7469 -2.0041 0.9791
2.0277 -4.4601 -2.0052 0.9790
2.4180 -4.2625 -2.0057 0.9790
3.4623 -3.4724 -2.0069 0.9790
3.7588 -3.1503 -2.0072 0.9790
4.0254 -2.8028 -2.0075 0.9790
4.4603 -2.0434 -2.0079 0.9790
4.6250 -1.6375 -2.0081 0.9790
4.8937 -0.3546 -2.0081 0.9790
4.9056 0.0832 -2.0080 0.9790
4.8783 0.5204 -2.0079 0.9790
4.5647 1.7927 -2.0071 0.9790
4.1721 2.5743 -2.0064 0.9790
3.9250 2.9355 -2.0060 0.9790
3.0056 3.8671 -2.0045 0.9791
1.8729 4.5209 -2.0028 0.9791
1.0392 4.7789 -2.0016 0.9791
0.6087 4.8511 -2.0010 0.9791
-0.2628 4.8791 -1.9998 0.9791
-4.1945 2.4833 -1.9950 0.9792
-4.3989 2.0991 -1.9948 0.9792
-4.7014 1.2839 -1.9946 0.9792
-2.1653 0.3879 -0.9003 0.9905
-1.9578 0.1727 -0.8044 0.9915
-1.8992 -0.0025 -0.7773 0.9918
-2.1764 -0.3960 -0.9054 0.9905
-4.5656 -1.7112 -1.9955 0.9791
-4.3955 -2.1120 -1.9959 0.9791
-3.9519 -2.8605 -1.9967 0.9791
-3.6818 -3.2023 -1.9971 0.9791
-3.3824 -3.5188 -1.9976 0.9791
-2.3320 -4.2922 -1.9992 0.9791
-1.9404 -4.4844 -1.9998 0.9791
-1.5332 -4.6409 -2.0004 0.9791
-1.1134 -4.7606 -2.0010 0.9791
2.6617 -4.1156 -2.0060 0.9790
3.0188 -3.8626 -2.0064 0.9790
3.6584 -3.2660 -2.0071 0.9790
3.9357 -2.9271 -2.0074 0.9790
4.3941 -2.1817 -2.0079 0.9790
4.8156 -0.9407 -2.0081 0.9790
4.8803 -0.5074 -2.0081 0.9790
4.9059 -0.0701 -2.0081 0.9790
4.8923 0.3678 -2.0079 0.9790
4.8395 0.8026 -2.0078 0.9790
4.6188 1.6493 -2.0072 0.9790
4.0151 2.8117 -2.0061 0.9790
3.7475 3.1579 -2.0057 0.9790
3.4501 3.4787 -2.0052 0.9790
2.4040 4.2645 -2.0036 0.9791
2.0135 4.4607 -2.0030 0.9791
1.6071 4.6211 -2.0024 0.9791
0.7600 4.8302 -2.0012 0.9791
0.3261 4.8773 -2.0006 0.9791
-0.1102 4.8855 -2.0000 0.9791
-0.5454 4.8547 -1.9994 0.9791
-0.9760 4.7854 -1.9989 0.9791
-1.3985 4.6780 -1.9983 0.9791
-2.2063 4.3528 -1.9973 0.9791
-2.5852 4.1377 -1.9968 0.9791
-2.9433 3.8898 -1.9964 0.9791
-3.2779 3.6111 -1.9960 0.9791
-3.5863 3.3037 -1.9957 0.9791
-3.8661 2.9703 -1.9954 0.9791
-4.6590 1.4302 -1.9946 0.9792
-1.9465 -0.1158 -0.7981 0.9916
-1.9577 -0.2933 -0.8102 0.9915
-4.7374 -1.1494 -1.9952 0.9792
-4.6166 -1.5676 -1.9954 0.9791
-4.0390 -2.7354 -1.9965 0.9791
-2.8302 -3.9790 -1.9985 0.9791
-2.0794 -4.4211 -1.9996 0.9791
-1.2615 -4.7230 -2.0008 0.9791
-0.8355 -4.8182 -2.0014 0.9791
-0.4025 -4.8750 -2.0020 0.9791
0.9033 -4.8118 -2.0038 0.9791
1.7448 -4.5772 -2.0048 0.9791
2.1467 -4.4045 -2.0053 0.9790
3.5543 -3.3785 -2.0070 0.9790
4.0993 -2.6940 -2.0076 0.9790
4.3237 -2.3179 -2.0078 0.9790
4.6673 -1.5130 -2.0081 0.9790
4.7838 -1.0907 -2.0081 0.9790
4.8620 -0.6596 -2.0081 0.9790
4.7845 1.0820 -2.0076 0.9790
4.6683 1.5042 -2.0074 0.9790
4.3253 2.3090 -2.0067 0.9790
3.8446 3.0395 -2.0059 0.9790
3.5574 3.3695 -2.0054 0.9790
3.2418 3.6725 -2.0049 0.9791
1.3360 4.7057 -2.0020 0.9791
0.9107 4.8046 -2.0014 0.9791
0.4783 4.8652 -2.0008 0.9791
0.0425 4.8870 -2.0002 0.9791
-1.2518 4.7198 -1.9985 0.9791
-2.4548 4.2168 -1.9970 0.9791
-2.8205 3.9802 -1.9965 0.9791
-4.2595 2.3699 -1.9950 0.9792
-4.4535 1.9803 -1.9948 0.9792
-4.7341 1.1574 -1.9946 0.9792
-1.9714 0.2989 -0.8161 0.9914
-1.9248 -0.0542 -0.7881 0.9917
-4.7708 -1.0008 -1.9951 0.9792
-4.5183 -1.8331 -1.9956 0.9791
-4.3376 -2.2292 -1.9960 0.9791
-2.9529 -3.8883 -1.9983 0.9791
-2.2163 -4.3535 -1.9994 0.9791
-1.8197 -4.5352 -2.0000 0.9791
-1.4083 -4.6808 -2.0006 0.9791
-0.1189 -4.8911 -2.0024 0.9791
0.3179 -4.8836 -2.0030 0.9791
0.7524 -4.8372 -2.0036 0.9791
2.0078 -4.4690 -2.0052 0.9790
2.7712 -4.0430 -2.0061 0.9790
3.7448 -3.1669 -2.0072 0.9790
4.0129 -2.8206 -2.0075 0.9790
4.2490 -2.4518 -2.0077 0.9790
4.6177 -1.6580 -2.0081 0.9790
4.8391 -0.8112 -2.0081 0.9790
4.9059 0.0615 -2.0080 0.9790
4.8805 0.4988 -2.0079 0.9790
4.7132 1.3577 -2.0074 0.9790
4.1835 2.5558 -2.0064 0.9790
3.9380 2.9181 -2.0060 0.9790
2.6662 4.1069 -2.0040 0.9791
1.8930 4.5126 -2.0028 0.9791
1.0605 4.7743 -2.0016 0.9791
0.6302 4.8484 -2.0010 0.9791
-0.2411 4.8803 -1.9998 0.9791
-0.6753 4.8380 -1.9992 0.9791
-1.1038 4.7571 -1.9987 0.9791
-1.9305 4.4829 -1.9976 0.9791
-3.6734 3.2062 -1.9956 0.9791
-4.3896 2.1186 -1.9948 0.9792
-4.5607 1.7185 -1.9947 0.9792
-4.6956 1.3048 -1.9946 0.9792
-2.1837 0.4013 -0.9087 0.9904
-1.9579 0.1814 -0.8048 0.9915
-1.9010 0.0059 -0.7781 0.9918
-2.1580 -0.3827 -0.8970 0.9906
-4.5731 -1.6909 -1.9955 0.9791
-4.4048 -2.0924 -1.9958 0.9791
-4.2014 -2.4774 -1.9962 0.9791
-3.6960 -3.1859 -1.9971 0.9791
-1.5537 -4.6340 -2.0004 0.9791
-1.1345 -4.7556 -2.0010 0.9791
0.1651 -4.8907 -2.0028 0.9791
1.4553 -4.6764 -2.0045 0.9791
2.2641 -4.3457 -2.0055 0.9790
2.6434 -4.1274 -2.0060 0.9790
3.0016 -3.8759 -2.0064 0.9790
4.5636 -1.8015 -2.0080 0.9790
4.7063 -1.3873 -2.0081 0.9790
4.8780 -0.5291 -2.0081 0.9790
4.9055 -0.0918 -2.0081 0.9790
4.8939 0.3460 -2.0079 0.9790
4.7536 1.2098 -2.0075 0.9790
4.6261 1.6288 -2.0073 0.9790
4.2616 2.4240 -2.0066 0.9790
3.7615 3.1413 -2.0057 0.9790
3.4655 3.4634 -2.0052 0.9790
3.1420 3.7578 -2.0047 0.9791
2.7935 4.0220 -2.0042 0.9791
2.0333 4.4518 -2.0030 0.9791
0.7814 4.8269 -2.0012 0.9791
0.3477 4.8759 -2.0006 0.9791
-0.5239 4.8572 -1.9995 0.9791
-0.9547 4.7897 -1.9989 0.9791
-1.7896 4.5414 -1.9978 0.9791
-2.1870 4.3626 -1.9973 0.9791
-2.9260 3.9029 -1.9964 0.9791
-3.5716 3.3196 -1.9957 0.9791
-3.8529 2.9874 -1.9954 0.9791
-4.1035 2.6315 -1.9951 0.9792
-4.5049 1.8602 -1.9947 0.9792
-4.7634 1.0301 -1.9946 0.9792
-1.9531 0.2428 -0.8055 0.9915
-1.9298 0.0663 -0.7903 0.9917
-1.9440 -0.1070 -0.7968 0.9916
-4.7424 -1.1284 -1.9952 0.9792
-4.6235 -1.5471 -1.9954 0.9791
-4.0511 -2.7174 -1.9965 0.9791
-3.7934 -3.0686 -1.9969 0.9791
-2.8478 -3.9664 -1.9984 0.9791
-1.2824 -4.7173 -2.0007 0.9791
0.0122 -4.8929 -2.0026 0.9791
1.3083 -4.7192 -2.0043 0.9791
1.7245 -4.5849 -2.0048 0.9791
2.8788 -3.9676 -2.0062 0.9790
4.0872 -2.7121 -2.0076 0.9790
4.3133 -2.3370 -2.0078 0.9790
4.5049 -1.9432 -2.0080 0.9790
4.6606 -1.5337 -2.0081 0.9790
4.7789 -1.1119 -2.0081 0.9790
4.8591 -0.6812 -2.0081 0.9790
4.9024 0.1929 -2.0080 0.9790
4.6750 1.4835 -2.0074 0.9790
4.5233 1.8943 -2.0071 0.9790
3.8581 3.0224 -2.0059 0.9790
3.2581 3.6581 -2.0049 0.9791
1.7712 4.5614 -2.0027 0.9791
1.3569 4.6998 -2.0021 0.9791
0.9320 4.8006 -2.0015 0.9791
0.4999 4.8631 -2.0008 0.9791
0.0641 4.8869 -2.0002 0.9791
-0.3719 4.8717 -1.9997 0.9791
-3.4663 3.4298 -1.9958 0.9791
-4.2489 2.3888 -1.9950 0.9792
-4.6051 1.5956 -1.9947 0.9792
-1.9210 -0.0456 -0.7864 0.9917
-1.9559 -0.2220 -0.8056 0.9915
-4.7752 -0.9797 -1.9951 0.9792
-4.5264 -1.8130 -1.9956 0.9791
-4.3474 -2.2099 -1.9960 0.9791
-4.1337 -2.5893 -1.9963 0.9791
-3.6095 -3.2841 -1.9972 0.9791
-3.3030 -3.5938 -1.9977 0.9791
-2.2355 -4.3436 -1.9994 0.9791
-1.4290 -4.6745 -2.0005 0.9791
-0.5761 -4.8569 -2.0017 0.9791
-0.1406 -4.8904 -2.0023 0.9791
1.1601 -4.7573 -2.0041 0.9791
2.3800 -4.2837 -2.0056 0.9790
2.7532 -4.0553 -2.0061 0.9790
3.1046 -3.7943 -2.0065 0.9790
3.7307 -3.1834 -2.0072 0.9790
4.2381 -2.4705 -2.0077 0.9790
4.7418 -1.2607 -2.0081 0.9790
4.8354 -0.8327 -2.0081 0.9790
4.8903 -0.3981 -2.0081 0.9790
4.9062 0.0397 -2.0080 0.9790
4.5805 1.7521 -2.0072 0.9790
3.9510 2.9006 -2.0060 0.9790
3.6757 3.2407 -2.0056 0.9790
2.3078 4.3169 -2.0034 0.9791
1.9130 4.5043 -2.0029 0.9791
1.0817 4.7696 -2.0017 0.9791
0.6517 4.8457 -2.0011 0.9791
-0.2195 4.8814 -1.9999 0.9791
-0.6538 4.8410 -1.9993 0.9791
-1.5027 4.6452 -1.9982 0.9791
-1.9106 4.4915 -1.9976 0.9791
-2.6769 4.0786 -1.9967 0.9791
-3.0294 3.8228 -1.9963 0.9791
-3.3577 3.5367 -1.9959 0.9791
-3.6592 3.2225 -1.9956 0.9791
-3.9314 2.8829 -1.9953 0.9791
-4.1724 2.5204 -1.9950 0.9792
-4.6898 1.3256 -1.9946 0.9792
-2.2023 0.4148 -0.9172 0.9904
-1.9579 0.1902 -0.8051 0.9915
-1.9056 0.0144 -0.7800 0.9918
-4.7107 -1.2552 -1.9952 0.9792
-4.5806 -1.6706 -1.9955 0.9791
-3.7100 -3.1694 -1.9971 0.9791
-3.4134 -3.4885 -1.9975 0.9791
-3.0894 -3.7801 -1.9981 0.9791
-2.7407 -4.0416 -1.9986 0.9791
-2.3699 -4.2712 -1.9992 0.9791
-1.5742 -4.6270 -2.0003 0.9791
-0.7275 -4.8360 -2.0015 0.9791
0.5793 -4.8604 -2.0033 0.9791
1.0108 -4.7907 -2.0039 0.9791
1.8469 -4.5374 -2.0050 0.9790
2.2448 -4.3556 -2.0055 0.9790
2.9843 -3.8892 -2.0064 0.9790
3.3200 -3.6082 -2.0068 0.9790
3.6292 -3.2983 -2.0071 0.9790
3.9095 -2.9619 -2.0074 0.9790
4.3746 -2.2206 -2.0079 0.9790
4.5555 -1.8217 -2.0080 0.9790
4.7001 -1.4082 -2.0081 0.9790
4.8070 -0.9834 -2.0081 0.9790
4.9051 -0.1136 -2.0081 0.9790
4.8954 0.3243 -2.0079 0.9790
4.8465 0.7596 -2.0078 0.9790
4.7589 1.1887 -2.0076 0.9790
4.6333 1.6082 -2.0073 0.9790
4.4707 2.0148 -2.0070 0.9790
4.2724 2.4051 -2.0066 0.9790
4.0400 2.7760 -2.0062 0.9790
3.7754 3.1246 -2.0057 0.9790
3.1586 3.7438 -2.0047 0.9791
2.3059 -3.9822 -2.0055 0.9801
2.6525 -3.7614 -2.0059 0.9801
2.9779 -3.5105 -2.0063 0.9801
3.2798 -3.2315 -2.0066 0.9801
3.5555 -2.9265 -2.0069 0.9801
4.0198 -2.2487 -2.0074 0.9801
4.5532 -0.7011 -2.0077 0.9801
4.5098 0.9352 -2.0073 0.9801
4.2708 1.7212 -2.0068 0.9801
4.0996 2.0949 -2.0064 0.9801
3.8957 2.4518 -2.0061 0.9801
3.1056 3.3934 -2.0048 0.9801
2.4520 3.8893 -2.0037 0.9801
1.3337 4.3960 -2.0021 0.9802
0.9360 4.4962 -2.0015 0.9802
0.5311 4.5605 -2.0010 0.9802
-0.6946 4.5346 -1.9993 0.9802
-1.0960 4.4534 -1.9988 0.9802
-1.4885 4.3368 -1.9983 0.9802
-2.2343 4.0014 -1.9973 0.9802
-2.5818 3.7854 -1.9969 0.9802
-3.2121 3.2652 -1.9962 0.9802
-3.7401 2.6418 -1.9956 0.9802
-1.5960 0.5772 -0.7397 0.9926
-1.5537 0.4095 -0.7003 0.9930
-1.5288 0.1212 -0.6684 0.9933
-1.5245 -0.0156 -0.6644 0.9934
-1.5263 -0.1524 -0.6685 0.9933
-1.4993 -0.2866 -0.6653 0.9934
-3.4313 -3.0383 -1.9974 0.9802
-3.1474 -3.3330 -1.9979 0.9802
-2.1543 -4.0504 -1.9994 0.9802
-0.1941 -4.5900 -2.0022 0.9802
0.6249 -4.5540 -2.0033 0.9801
1.4249 -4.3728 -2.0044 0.9801
2.8666 -3.6016 -2.0061 0.9801
3.1770 -3.3322 -2.0065 0.9801
3.4621 -3.0360 -2.0068 0.9801
3.7196 -2.7154 -2.0071 0.9801
3.9474 -2.3731 -2.0073 0.9801
4.3069 -1.6343 -2.0076 0.9801
4.4357 -1.2436 -2.0077 0.9801
4.5901 0.3860 -2.0075 0.9801
4.5370 0.7938 -2.0073 0.9801
4.4476 1.1952 -2.0071 0.9801
4.3227 1.5870 -2.0069 0.9801
3.7464 2.6734 -2.0058 0.9801
3.4923 2.9962 -2.0054 0.9801
2.9030 3.5674 -2.0044 0.9801
2.5726 3.8111 -2.0039 0.9801
0.6734 4.5421 -2.0012 0.9802
-0.5526 4.5545 -1.9995 0.9802
-1.3524 4.3816 -1.9984 0.9802
-1.7374 4.2424 -1.9979 0.9802
-2.4624 3.8645 -1.9970 0.9802
-3.1087 3.3642 -1.9963 0.9802
-4.0868 2.0636 -1.9953 0.9802
-1.5090 0.3054 -0.6710 0.9933
-1.5242 0.1689 -0.6683 0.9933
-1.5295 -0.1046 -0.6681 0.9933
-1.5095 -0.2399 -0.6661 0.9934
-1.5464 -0.3898 -0.6950 0.9931
-1.5928 -0.5567 -0.7354 0.9927
-3.7707 -2.6028 -1.9968 0.9802
-3.2497 -3.2328 -1.9977 0.9802
-2.9491 -3.5106 -1.9982 0.9802
-2.2796 -3.9808 -1.9992 0.9802
-1.1453 -4.4459 -2.0009 0.9802
-0.7444 -4.5316 -2.0014 0.9802
0.4823 -4.5709 -2.0031 0.9801
0.8883 -4.5108 -2.0037 0.9801
1.2874 -4.4148 -2.0042 0.9801
1.6765 -4.2834 -2.0047 0.9801
2.4120 -3.9192 -2.0056 0.9801
2.7525 -3.6892 -2.0060 0.9801
3.8712 -2.4952 -2.0072 0.9801
4.2537 -1.7680 -2.0076 0.9801
4.3946 -1.3816 -2.0077 0.9801
4.5005 -0.9842 -2.0077 0.9801
4.6036 -0.1688 -2.0077 0.9801
4.3704 1.4512 -2.0070 0.9801
4.2229 1.8350 -2.0067 0.9801
4.0418 2.2039 -2.0063 0.9801
3.5844 2.8858 -2.0055 0.9801
3.0133 3.4752 -2.0046 0.9801
2.6906 3.7292 -2.0041 0.9801
2.3467 3.9533 -2.0036 0.9801
1.6060 4.3050 -2.0025 0.9802
1.2153 4.4298 -2.0019 0.9802
0.8151 4.5193 -2.0014 0.9802
-0.0008 4.5896 -2.0002 0.9802
-0.4101 4.5700 -1.9997 0.9802
-0.8159 4.5140 -1.9991 0.9802
-2.3406 3.9398 -1.9972 0.9802
-2.6821 3.7146 -1.9968 0.9802
-1.5871 0.5263 -0.7287 0.9927
-1.5347 0.3608 -0.6871 0.9931
-1.5155 0.2160 -0.6672 0.9933
-1.5226 -0.3336 -0.6793 0.9932
-1.5805 -0.4975 -0.7221 0.9928
-4.2285 -1.7593 -1.9960 0.9802
-4.0554 -2.1298 -1.9963 0.9802
-3.8500 -2.4835 -1.9967 0.9802
-3.3489 -3.1294 -1.9975 0.9802
-3.0571 -3.4164 -1.9980 0.9802
-2.4026 -3.9072 -1.9990 0.9802
-1.6711 -4.2743 -2.0001 0.9802
-0.8856 -4.5057 -2.0012 0.9802
-0.4803 -4.5680 -2.0018 0.9802
0.7469 -4.5360 -2.0035 0.9801
1.1488 -4.4525 -2.0040 0.9801
1.5417 -4.3333 -2.0045 0.9801
2.2882 -3.9923 -2.0054 0.9801
2.9623 -3.5237 -2.0062 0.9801
3.7912 -2.6149 -2.0072 0.9801
4.0098 -2.2665 -2.0074 0.9801
4.5500 -0.7213 -2.0077 0.9801
4.5961 -0.3126 -2.0077 0.9801
4.5780 0.5089 -2.0075 0.9801
4.5140 0.9152 -2.0073 0.9801
4.1089 2.0767 -2.0064 0.9801
3.9066 2.4345 -2.0061 0.9801
3.4104 3.0886 -2.0053 0.9801
2.8061 3.6436 -2.0043 0.9801
2.4693 3.8784 -2.0038 0.9801
1.7399 4.2531 -2.0027 0.9801
0.9560 4.4921 -2.0016 0.9802
-0.6745 4.5377 -1.9993 0.9802
-1.0762 4.4583 -1.9988 0.9802
-1.4692 4.3434 -1.9983 0.9802
-2.2165 4.0113 -1.9973 0.9802
-2.5650 3.7968 -1.9969 0.9802
-2.8928 3.5522 -1.9965 0.9802
-3.7283 2.6584 -1.9956 0.9802
-4.1405 1.9533 -1.9952 0.9802
-1.5029 0.2624 -0.6649 0.9934
-1.5235 -0.0088 -0.6640 0.9934
-1.5270 -0.1456 -0.6685 0.9933
-1.4973 -0.2793 -0.6638 0.9934
-4.1197 -2.0020 -1.9962 0.9802
-3.9254 -2.3619 -1.9966 0.9802
-3.6998 -2.7031 -1.9970 0.9802
-3.4447 -3.0230 -1.9974 0.9802
-3.1621 -3.3190 -1.9978 0.9802
-2.5233 -3.8299 -1.9988 0.9802
-2.1722 -4.0408 -1.9994 0.9802
-1.8036 -4.2196 -1.9999 0.9802
-1.4205 -4.3648 -2.0005 0.9802
-1.0258 -4.4754 -2.0010 0.9802
-0.2144 -4.5891 -2.0022 0.9802
0.1958 -4.5912 -2.0027 0.9801
1.4054 -4.3790 -2.0043 0.9801
2.5164 -3.8533 -2.0057 0.9801
2.8506 -3.6142 -2.0061 0.9801
3.1622 -3.3462 -2.0065 0.9801
3.9368 -2.3906 -2.0073 0.9801
4.2996 -1.6533 -2.0076 0.9801
4.4302 -1.2633 -2.0077 0.9801
4.5842 -0.4561 -2.0077 0.9801
4.5918 0.3657 -2.0075 0.9801
4.4529 1.1755 -2.0071 0.9801
4.3298 1.5678 -2.0069 0.9801
4.1720 1.9474 -2.0066 0.9801
3.7582 2.6567 -2.0058 0.9801
3.5056 2.9807 -2.0054 0.9801
3.2250 3.2808 -2.0050 0.9801
2.5895 3.7997 -2.0040 0.9801
2.2396 4.0145 -2.0034 0.9801
1.4899 4.3461 -2.0023 0.9802
0.6936 4.5391 -2.0012 0.9802
0.2859 4.5816 -2.0006 0.9802
-0.1239 4.5876 -2.0001 0.9802
-0.5324 4.5570 -1.9995 0.9802
-0.9365 4.4901 -1.9990 0.9802
-1.3329 4.3875 -1.9985 0.9802
-2.0903 4.0789 -1.9975 0.9802
-2.4453 3.8754 -1.9971 0.9802
-3.0937 3.3780 -1.9963 0.9802
-3.3822 3.0881 -1.9960 0.9802
-1.5129 0.3131 -0.6733 0.9933
-1.5113 -0.2333 -0.6665 0.9933
-1.5433 -0.3817 -0.6928 0.9931
-3.9971 -2.2379 -1.9964 0.9802
-3.5372 -2.9137 -1.9972 0.9802
-2.9646 -3.4974 -1.9982 0.9802
-2.2972 -3.9706 -1.9992 0.9802
-1.9344 -4.1607 -1.9997 0.9802
-1.5560 -4.3179 -2.0003 0.9802
-1.1650 -4.4407 -2.0008 0.9802
-0.7645 -4.5282 -2.0014 0.9802
0.8683 -4.5147 -2.0036 0.9801
3.3514 -3.1574 -2.0067 0.9801
3.6202 -2.8463 -2.0070 0.9801
3.8601 -2.5124 -2.0072 0.9801
4.2458 -1.7868 -2.0076 0.9801
4.4961 -1.0041 -2.0077 0.9801
4.6011 0.2220 -2.0076 0.9801
4.3768 1.4318 -2.0070 0.9801
4.2311 1.8162 -2.0067 0.9801
4.0515 2.1860 -2.0063 0.9801
3.8397 2.5382 -2.0060 0.9801
3.3262 3.1787 -2.0051 0.9801
3.0287 3.4618 -2.0046 0.9801
2.3642 3.9429 -2.0036 0.9801
2.0025 4.1370 -2.0031 0.9801
1.6251 4.2979 -2.0025 0.9802
1.2350 4.4245 -2.0020 0.9802
0.8352 4.5157 -2.0014 0.9802
0.0195 4.5896 -2.0003 0.9802
-0.3898 4.5718 -1.9997 0.9802
-1.1953 4.4274 -1.9986 0.9802
-1.9620 4.1426 -1.9977 0.9802
-2.3231 3.9502 -1.9972 0.9802
-2.6657 3.7265 -1.9968 0.9802
-3.5553 2.8863 -1.9958 0.9802
-3.7981 2.5574 -1.9955 0.9802
-4.0107 2.2082 -1.9953 0.9802
-1.5888 0.5347 -0.7306 0.9927
-1.5281 -0.0498 -0.6663 0.9934
-1.5215 -0.1864 -0.6680 0.9933
-1.5189 -0.3257 -0.6770 0.9932
-4.2362 -1.7406 -1.9960 0.9802
-4.0648 -2.1118 -1.9963 0.9802
-3.3627 -3.1145 -1.9975 0.9802
-2.4199 -3.8965 -1.9990 0.9802
-2.0633 -4.0979 -1.9995 0.9802
-1.6900 -4.2668 -2.0001 0.9802
-0.9055 -4.5017 -2.0012 0.9802
-0.0913 -4.5935 -2.0023 0.9802
0.3189 -4.5847 -2.0029 0.9801
0.7267 -4.5392 -2.0034 0.9801
2.2704 -4.0024 -2.0054 0.9801
2.6189 -3.7847 -2.0058 0.9801
2.9466 -3.5367 -2.0062 0.9801
3.7795 -2.6316 -2.0071 0.9801
3.9996 -2.2843 -2.0074 0.9801
4.3425 -1.5375 -2.0076 0.9801
4.4625 -1.1441 -2.0077 0.9801
4.5468 -0.7415 -2.0077 0.9801
4.5947 -0.3330 -2.0077 0.9801
4.6059 0.0782 -2.0076 0.9801
4.5803 0.4886 -2.0075 0.9801
4.2860 1.6832 -2.0068 0.9801
4.1181 2.0585 -2.0065 0.9801
3.9174 2.4171 -2.0061 0.9801
3.6854 2.7564 -2.0057 0.9801
3.4242 3.0734 -2.0053 0.9801
2.1310 4.0727 -2.0033 0.9801
1.3727 4.3841 -2.0022 0.9802
0.9760 4.4878 -2.0016 0.9802
0.1629 4.5872 -2.0005 0.9802
-0.2468 4.5822 -1.9999 0.9802
-1.0565 4.4630 -1.9988 0.9802
-2.1987 4.0212 -1.9974 0.9802
-2.5481 3.8082 -1.9969 0.9802
-2.8771 3.5651 -1.9966 0.9802
-3.1830 3.2937 -1.9962 0.9802
-3.4636 2.9962 -1.9959 0.9802
-3.7165 2.6749 -1.9956 0.9802
-4.1318 1.9716 -1.9952 0.9802
-1.5007 0.2689 -0.6645 0.9934
-1.5279 0.1348 -0.6685 0.9933
-1.5225 -0.0021 -0.6635 0.9934
-1.5611 -0.4308 -0.7058 0.9930
-1.5987 -0.5992 -0.7441 0.9926
-3.9358 -2.3444 -1.9965 0.9802
-3.7118 -2.6867 -1.9969 0.9802
-3.1767 -3.3048 -1.9978 0.9802
-2.8700 -3.5759 -1.9983 0.9802
-2.5403 -3.8186 -1.9988 0.9802
-2.1901 -4.0310 -1.9993 0.9802
-1.8223 -4.2115 -1.9999 0.9802
-1.4398 -4.3584 -2.0004 0.9802
-1.0456 -4.4708 -2.0010 0.9802
-0.6429 -4.5475 -2.0016 0.9802
-0.2348 -4.5880 -2.0021 0.9802
0.1754 -4.5920 -2.0027 0.9801
0.5845 -4.5592 -2.0033 0.9801
0.9891 -4.4901 -2.0038 0.9801
2.1441 -4.0711 -2.0053 0.9801
3.1473 -3.3602 -2.0065 0.9801
3.4350 -3.0665 -2.0068 0.9801
4.1257 -2.0484 -2.0075 0.9801
4.2923 -1.6724 -2.0076 0.9801
4.4245 -1.2829 -2.0077 0.9801
4.5214 -0.8832 -2.0077 0.9801
4.5821 -0.4764 -2.0077 0.9801
4.6062 -0.0658 -2.0076 0.9801
4.5934 0.3453 -2.0075 0.9801
4.4581 1.1557 -2.0072 0.9801
3.7700 2.6401 -2.0059 0.9801
3.5188 2.9652 -2.0054 0.9801
3.2396 3.2665 -2.0050 0.9801
2.6063 3.7882 -2.0040 0.9801
0.3062 4.5804 -2.0007 0.9802
-0.5122 4.5593 -1.9995 0.9802
-1.6997 4.2578 -1.9980 0.9802
-2.4281 3.8863 -1.9971 0.9802
-3.3684 3.1031 -1.9960 0.9802
-3.8652 2.4546 -1.9955 0.9802
-4.2391 1.7284 -1.9951 0.9802
-1.5771 0.4841 -0.7190 0.9928
-1.5222 0.1823 -0.6681 0.9933
-1.5898 -0.5398 -0.7317 0.9927
-3.7936 -2.5692 -1.9968 0.9802
-3.5501 -2.8979 -1.9972 0.9802
-2.9801 -3.4842 -1.9981 0.9802
-2.3148 -3.9603 -1.9992 0.9802
-1.5752 -4.3109 -2.0002 0.9802
-0.7846 -4.5247 -2.0014 0.9802
0.0319 -4.5947 -2.0025 0.9802
1.6384 -4.2980 -2.0046 0.9801
2.0157 -4.1357 -2.0051 0.9801
3.0406 -3.4567 -2.0063 0.9801
3.3373 -3.1722 -2.0067 0.9801
4.3822 -1.4205 -2.0077 0.9801
4.4916 -1.0240 -2.0077 0.9801
4.6021 0.2016 -2.0076 0.9801
4.4922 1.0159 -2.0072 0.9801
3.6100 2.8540 -2.0056 0.9801
3.3403 3.1639 -2.0051 0.9801
3.0441 3.4484 -2.0047 0.9801
2.3817 3.9324 -2.0036 0.9801
2.0209 4.1281 -2.0031 0.9801
1.6442 4.2907 -2.0025 0.9802
1.2546 4.4190 -2.0020 0.9802
0.8552 4.5120 -2.0014 0.9802
0.4492 4.5690 -2.0008 0.9802
0.0399 4.5896 -2.0003 0.9802
-0.7758 4.5211 -1.9992 0.9802
-2.9714 3.4865 -1.9964 0.9802
-3.7868 2.5742 -1.9956 0.9802
-4.0008 2.2260 -1.9953 0.9802
-4.0741 -2.0937 -1.9963 0.9802
-3.8718 -2.4492 -1.9967 0.9802
-2.7733 -3.6518 -1.9985 0.9802
-2.4372 -3.8857 -1.9990 0.9802
-2.0814 -4.0886 -1.9995 0.9802
-1.3226 -4.3958 -2.0006 0.9802
-0.9255 -4.4976 -2.0012 0.9802
0.2985 -4.5860 -2.0029 0.9801
0.7066 -4.5423 -2.0034 0.9801
1.1092 -4.4624 -2.0039 0.9801
1.8853 -4.1964 -2.0049 0.9801
2.2526 -4.0124 -2.0054 0.9801
3.5161 -2.9735 -2.0069 0.9801
3.9894 -2.3020 -2.0074 0.9801
4.1792 -1.9371 -2.0075 0.9801
4.4573 -1.1639 -2.0077 0.9801
4.5434 -0.7617 -2.0077 0.9801
4.5932 -0.3534 -2.0077 0.9801
4.5824 0.4683 -2.0075 0.9801
4.4254 1.2748 -2.0071 0.9801
4.2934 1.6642 -2.0068 0.9801
4.1272 2.0402 -2.0065 0.9801
3.9281 2.3998 -2.0061 0.9801
3.6977 2.7400 -2.0057 0.9801
3.4378 3.0583 -2.0053 0.9801
3.1506 3.3519 -2.0048 0.9801
2.5036 3.8564 -2.0038 0.9801
2.1491 4.0633 -2.0033 0.9801
1.7776 4.2376 -2.0027 0.9801
0.9959 4.4835 -2.0016 0.9802
0.5918 4.5532 -2.0010 0.9802
0.1833 4.5865 -2.0005 0.9802
-0.6342 4.5436 -1.9994 0.9802
-1.4307 4.3564 -1.9983 0.9802
-2.1809 4.0309 -1.9974 0.9802
-3.4503 3.0115 -1.9959 0.9802
-3.9295 2.3500 -1.9954 0.9802
-4.1231 1.9899 -1.9952 0.9802
-4.2839 1.6142 -1.9951 0.9802
-1.5622 0.4341 -0.7066 0.9930
-1.5229 0.0047 -0.6637 0.9934
-1.5016 -0.2663 -0.6646 0.9934
-1.5583 -0.4227 -0.7037 0.9930
-3.7236 -2.6701 -1.9969 0.9802
-2.8858 -3.5631 -1.9983 0.9802
-2.5571 -3.8073 -1.9988 0.9802
-2.2079 -4.0212 -1.9993 0.9802
-1.4591 -4.3519 -2.0004 0.9802
-0.2551 -4.5869 -2.0021 0.9802
0.1551 -4.5926 -2.0027 0.9801
2.1260 -4.0805 -2.0052 0.9801
2.4820 -3.8754 -2.0057 0.9801
3.4213 -3.0817 -2.0068 0.9801
3.9154 -2.4254 -2.0073 0.9801
4.4188 -1.3025 -2.0077 0.9801
4.5799 -0.4967 -2.0077 0.9801
4.6058 -0.0862 -2.0077 0.9801
4.5949 0.3249 -2.0075 0.9801
4.0014 2.2760 -2.0063 0.9801
3.5319 2.9496 -2.0055 0.9801
3.2540 3.2521 -2.0050 0.9801
2.6232 3.7767 -2.0040 0.9801
1.5285 4.3329 -2.0024 0.9802
1.1356 4.4507 -2.0018 0.9802
0.3265 4.5790 -2.0007 0.9802
-0.4920 4.5616 -1.9996 0.9802
-1.2940 4.3993 -1.9985 0.9802
-2.4108 3.8970 -1.9971 0.9802
-2.7482 3.6657 -1.9967 0.9802
-3.3547 3.1180 -1.9960 0.9802
-3.6189 2.8060 -1.9957 0.9802
-4.2314 1.7473 -1.9951 0.9802
-1.5793 0.4925 -0.7210 0.9928
-1.5282 0.0525 -0.6664 0.9933
-1.5367 -0.3657 -0.6884 0.9931
-3.8050 -2.5523 -1.9968 0.9802
-3.5629 -2.8821 -1.9972 0.9802
-3.2923 -3.1891 -1.9976 0.9802
-2.9955 -3.4709 -1.9981 0.9802
-2.6746 -3.7252 -1.9986 0.9802
-1.9712 -4.1433 -1.9997 0.9802
-1.5942 -4.3038 -2.0002 0.9802
-1.2043 -4.4301 -2.0008 0.9802
-0.8046 -4.5211 -2.0014 0.9802
-0.3983 -4.5762 -2.0019 0.9802
1.6193 -4.3052 -2.0046 0.9801
1.9973 -4.1446 -2.0051 0.9801
2.3595 -3.9508 -2.0055 0.9801
3.0252 -3.4701 -2.0063 0.9801
3.3232 -3.1870 -2.0067 0.9801
3.8376 -2.5465 -2.0072 0.9801
4.2297 -1.8245 -2.0076 0.9801
4.4870 -1.0440 -2.0077 0.9801
4.4967 0.9960 -2.0072 0.9801
4.3894 1.3929 -2.0070 0.9801
4.0709 2.1500 -2.0064 0.9801
2.7401 3.6932 -2.0042 0.9801
2.3992 3.9218 -2.0037 0.9801
2.0392 4.1191 -2.0031 0.9801
1.6632 4.2834 -2.0026 0.9802
1.2742 4.4134 -2.0020 0.9802
0.8752 4.5082 -2.0014 0.9802
0.4695 4.5670 -2.0009 0.9802
-0.3493 4.5752 -1.9998 0.9802
-0.7557 4.5246 -1.9992 0.9802
-1.1560 4.4380 -1.9987 0.9802
-1.9252 4.1599 -1.9977 0.9802
-2.6325 3.7501 -1.9968 0.9802
-2.9560 3.4997 -1.9965 0.9802
-3.7753 2.5910 -1.9956 0.9802
-4.1748 1.8787 -1.9952 0.9802
-1.5919 0.5516 -0.7343 0.9927
-1.5445 0.3849 -0.6937 0.9931
-1.5269 -0.0362 -0.6656 0.9934
-1.5113 -0.3101 -0.6724 0.9933
-4.0833 -2.0756 -1.9963 0.9802
-3.6509 -2.7692 -1.9970 0.9802
-3.3901 -3.0845 -1.9975 0.9802
-2.4543 -3.8747 -1.9989 0.9802
-2.0995 -4.0793 -1.9995 0.9802
-1.3420 -4.3899 -2.0006 0.9802
-0.1321 -4.5924 -2.0023 0.9802
0.2781 -4.5872 -2.0028 0.9801
1.0894 -4.4672 -2.0039 0.9801
1.4838 -4.3533 -2.0044 0.9801
1.8667 -4.2047 -2.0049 0.9801
2.2348 -4.0223 -2.0054 0.9801
2.9151 -3.5627 -2.0062 0.9801
3.2218 -3.2890 -2.0065 0.9801
3.7560 -2.6650 -2.0071 0.9801
3.9792 -2.3196 -2.0073 0.9801
4.1706 -1.9556 -2.0075 0.9801
4.4521 -1.1836 -2.0077 0.9801
4.5916 -0.3738 -2.0077 0.9801
4.5844 0.4480 -2.0075 0.9801
4.5258 0.8550 -2.0073 0.9801
4.4310 1.2551 -2.0071 0.9801
4.3008 1.6451 -2.0068 0.9801
3.9388 2.3823 -2.0061 0.9801
3.7098 2.7236 -2.0057 0.9801
3.4514 3.0430 -2.0053 0.9801
3.1655 3.3379 -2.0049 0.9801
2.8544 3.6061 -2.0044 0.9801
2.1671 4.0538 -2.0033 0.9801
1.4116 4.3719 -2.0022 0.9802
0.6120 4.5506 -2.0011 0.9802
-0.2061 4.5843 -2.0000 0.9802
-1.4114 4.3627 -1.9984 0.9802
-1.7944 4.2184 -1.9979 0.9802
-4.1142 2.0082 -1.9952 0.9802
-4.2766 1.6332 -1.9951 0.9802
-1.5649 0.4423 -0.7087 0.9929
-1.4970 0.2819 -0.6639 0.9934
-1.5267 0.1483 -0.6685 0.9933
-1.5239 0.0115 -0.6642 0.9934
-1.5286 -0.1253 -0.6684 0.9933
-1.5037 -0.2598 -0.6650 0.9934
-1.5967 -0.5823 -0.7407 0.9926
-3.7354 -2.6535 -1.9969 0.9802
-3.4845 -2.9768 -1.9973 0.9802
-2.5740 -3.7958 -1.9988 0.9802
-1.8596 -4.1950 -1.9998 0.9802
-1.4784 -4.3454 -2.0004 0.9802
-0.2755 -4.5856 -2.0021 0.9802
0.1347 -4.5932 -2.0027 0.9801
1.3470 -4.3972 -2.0043 0.9801
1.7342 -4.2606 -2.0048 0.9801
2.8022 -3.6518 -2.0061 0.9801
3.1173 -3.3879 -2.0064 0.9801
3.4076 -3.0969 -2.0068 0.9801
3.9046 -2.4427 -2.0073 0.9801
4.1073 -2.0850 -2.0075 0.9801
4.6054 -0.1067 -2.0077 0.9801
4.5963 0.3045 -2.0075 0.9801
4.5505 0.7132 -2.0074 0.9801
4.0115 2.2582 -2.0063 0.9801
3.5450 2.9339 -2.0055 0.9801
2.6399 3.7650 -2.0040 0.9801
2.1708 -3.7489 -2.0052 0.9811
2.4970 -3.5410 -2.0056 0.9811
3.0875 -3.0420 -2.0063 0.9811
3.3470 -2.7549 -2.0066 0.9811
4.1005 -1.4110 -2.0073 0.9811
4.2861 -0.6600 -2.0074 0.9811
4.3278 -0.2751 -2.0073 0.9811
4.3349 0.1120 -2.0072 0.9811
4.2454 0.8803 -2.0069 0.9811
3.8593 1.9721 -2.0061 0.9811
3.1977 2.9218 -2.0050 0.9811
2.9237 3.1947 -2.0046 0.9811
2.6265 3.4419 -2.0041 0.9811
1.9721 3.8519 -2.0031 0.9811
0.8813 4.2332 -2.0015 0.9811
0.5001 4.2938 -2.0010 0.9811
0.1151 4.3202 -2.0005 0.9811
-0.6540 4.2697 -1.9994 0.9811
-1.0320 4.1933 -1.9989 0.9811
-1.4016 4.0835 -1.9984 0.9812
-1.7598 3.9413 -1.9980 0.9812
-2.4311 3.5645 -1.9972 0.9812
-2.7388 3.3328 -1.9968 0.9812
-3.2864 2.7923 -1.9962 0.9812
-3.5219 2.4877 -1.9959 0.9812
-1.3147 0.3465 -0.6293 0.9940
-1.3349 -0.0136 -0.6179 0.9941
-1.3218 -0.3775 -0.6363 0.9940
-1.3311 -0.5124 -0.6602 0.9937
-3.8710 -1.9024 -1.9965 0.9812
-3.4726 -2.5608 -1.9972 0.9812
-3.2310 -2.8609 -1.9976 0.9812
-2.9636 -3.1384 -1.9981 0.9812
-2.3599 -3.6167 -1.9990 0.9811
-1.6806 -3.9805 -2.0000 0.9811
-1.3192 -4.1157 -2.0005 0.9811
-0.5673 -4.2868 -2.0016 0.9811
-0.1827 -4.3215 -2.0022 0.9811
0.2035 -4.3217 -2.0027 0.9811
0.5883 -4.2874 -2.0032 0.9811
0.9687 -4.2190 -2.0037 0.9811
1.3414 -4.1167 -2.0042 0.9811
2.3850 -3.6170 -2.0055 0.9811
2.6986 -3.3905 -2.0059 0.9811
3.5015 -2.5562 -2.0067 0.9811
4.0543 -1.5384 -2.0073 0.9811
4.1756 -1.1707 -2.0073 0.9811
4.2634 -0.7936 -2.0074 0.9811
4.3171 -0.4102 -2.0073 0.9811
4.3364 -0.0235 -2.0073 0.9811
4.3209 0.3634 -2.0072 0.9811
4.0693 1.4939 -2.0065 0.9811
3.7380 2.1925 -2.0059 0.9811
3.5268 2.5167 -2.0055 0.9811
3.0223 3.1020 -2.0047 0.9811
2.7330 3.3585 -2.0043 0.9811
2.4219 3.5880 -2.0038 0.9811
2.0917 3.7888 -2.0033 0.9811
1.0132 4.2040 -2.0017 0.9811
-0.5203 4.2884 -1.9996 0.9811
-2.6335 3.4170 -1.9969 0.9812
-2.9273 3.1679 -1.9966 0.9812
-3.6601 2.2790 -1.9958 0.9812
-3.8485 1.9433 -1.9956 0.9812
-1.3345 0.1479 -0.6215 0.9941
-1.3362 0.0281 -0.6187 0.9941
-1.3336 -0.4661 -0.6539 0.9938
-1.3161 -0.5965 -0.6689 0.9937
-3.7545 -2.1241 -1.9967 0.9812
-3.5507 -2.4509 -1.9971 0.9812
-3.3186 -2.7584 -1.9975 0.9812
-3.0600 -3.0441 -1.9979 0.9812
-2.7769 -3.3056 -1.9984 0.9812
-2.4716 -3.5410 -1.9988 0.9811
-1.4470 -4.0721 -2.0004 0.9811
-0.3176 -4.3133 -2.0020 0.9811
0.0684 -4.3256 -2.0025 0.9811
0.4541 -4.3033 -2.0030 0.9811
1.9321 -3.8766 -2.0049 0.9811
2.5912 -3.4730 -2.0057 0.9811
2.8911 -3.2286 -2.0061 0.9811
3.1681 -2.9583 -2.0064 0.9811
3.4198 -2.6643 -2.0067 0.9811
3.6442 -2.3489 -2.0069 0.9811
4.3336 -0.1589 -2.0073 0.9811
4.3303 0.2282 -2.0072 0.9811
4.2201 0.9938 -2.0069 0.9811
3.9754 1.7274 -2.0064 0.9811
3.6040 2.4054 -2.0057 0.9811
2.8368 3.2717 -2.0044 0.9811
2.5331 3.5108 -2.0040 0.9811
2.2093 3.7219 -2.0035 0.9811
1.5121 4.0531 -2.0024 0.9811
1.1442 4.1707 -2.0019 0.9811
0.7674 4.2550 -2.0014 0.9811
0.3848 4.3053 -2.0008 0.9811
-0.0008 4.3214 -2.0003 0.9811
-0.7682 4.2503 -1.9993 0.9811
-1.8647 3.8925 -1.9979 0.9812
-2.5256 3.4978 -1.9971 0.9812
-3.5873 2.3924 -1.9959 0.9812
-1.3035 0.3065 -0.6198 0.9941
-1.3276 0.1893 -0.6207 0.9941
-1.3384 0.0700 -0.6204 0.9941
-1.3006 -0.2849 -0.6163 0.9941
-1.3259 -0.5517 -0.6647 0.9937
-3.4029 -2.6532 -1.9974 0.9812
-2.8786 -3.2170 -1.9982 0.9812
-2.5808 -3.4617 -1.9987 0.9811
-2.2623 -3.6790 -1.9992 0.9811
-1.5734 -4.0245 -2.0002 0.9811
-1.2085 -4.1499 -2.0007 0.9811
0.7031 -4.2705 -2.0033 0.9811
1.0815 -4.1918 -2.0038 0.9811
1.4514 -4.0796 -2.0043 0.9811
2.1541 -3.7584 -2.0052 0.9811
2.4813 -3.5520 -2.0056 0.9811
3.3347 -2.7697 -2.0066 0.9811
3.7746 -2.1336 -2.0070 0.9811
4.2055 -1.0583 -2.0073 0.9811
4.3095 0.4791 -2.0071 0.9811
4.2493 0.8615 -2.0069 0.9811
4.1550 1.2369 -2.0067 0.9811
4.0276 1.6024 -2.0065 0.9811
3.8680 1.9550 -2.0062 0.9811
3.6776 2.2918 -2.0058 0.9811
3.4579 2.6102 -2.0054 0.9811
2.3247 3.6513 -2.0036 0.9811
1.9893 3.8432 -2.0031 0.9811
0.9001 4.2293 -2.0015 0.9811
0.1342 4.3197 -2.0005 0.9811
-0.6351 4.2726 -1.9994 0.9811
-1.0134 4.1979 -1.9989 0.9811
-1.3834 4.0898 -1.9985 0.9811
-1.7423 3.9492 -1.9980 0.9812
-2.0872 3.7772 -1.9976 0.9812
-2.7240 3.3450 -1.9968 0.9812
-3.5109 2.5034 -1.9959 0.9812
-3.7198 2.1800 -1.9957 0.9812
-1.3163 0.3532 -0.6309 0.9940
-1.3379 0.1120 -0.6215 0.9941
-1.3369 -0.1275 -0.6216 0.9941
-1.3317 -0.5059 -0.6594 0.9937
-3.6964 -2.2241 -1.9968 0.9812
-2.9775 -3.1252 -1.9980 0.9812
-2.3759 -3.6062 -1.9990 0.9811
-2.0453 -3.8047 -1.9995 0.9811
-0.5863 -4.2842 -2.0016 0.9811
0.1844 -4.3225 -2.0027 0.9811
0.5693 -4.2900 -2.0032 0.9811
0.9499 -4.2232 -2.0037 0.9811
1.6860 -3.9891 -2.0046 0.9811
2.3689 -3.6275 -2.0055 0.9811
2.6835 -3.4024 -2.0058 0.9811
2.9768 -3.1500 -2.0062 0.9811
3.4901 -2.5717 -2.0067 0.9811
3.7060 -2.2504 -2.0070 0.9811
3.8923 -1.9111 -2.0071 0.9811
4.2598 -0.8125 -2.0074 0.9811
4.3153 -0.4293 -2.0073 0.9811
4.3362 -0.0427 -2.0073 0.9811
4.3225 0.3442 -2.0072 0.9811
3.9275 1.8333 -2.0063 0.9811
3.3002 2.8061 -2.0052 0.9811
2.7479 3.3463 -2.0043 0.9811
2.1085 3.7795 -2.0033 0.9811
0.6530 4.2737 -2.0012 0.9811
-0.1166 4.3195 -2.0001 0.9811
-0.5013 4.2907 -1.9996 0.9811
-0.8818 4.2278 -1.9991 0.9811
-1.2551 4.1313 -1.9986 0.9811
-1.6182 4.0020 -1.9982 0.9812
-2.6184 3.4287 -1.9969 0.9812
-2.9132 3.1809 -1.9966 0.9812
-3.6500 2.2952 -1.9958 0.9812
-1.3285 0.5348 -0.6629 0.9937
-1.3262 0.4007 -0.6413 0.9939
-1.3058 0.2703 -0.6172 0.9941
-1.3337 0.1538 -0.6214 0.9941
-1.3367 0.0341 -0.6189 0.9941
-1.3385 -0.0856 -0.6209 0.9941
-1.3086 -0.3237 -0.6240 0.9941
-1.3336 -0.4595 -0.6529 0.9938
-3.3308 -2.7436 -1.9975 0.9812
-3.0734 -3.0304 -1.9979 0.9812
-2.7915 -3.2932 -1.9983 0.9812
-2.4872 -3.5299 -1.9988 0.9811
-2.1630 -3.7386 -1.9993 0.9811
-1.4651 -4.0655 -2.0003 0.9811
-0.7198 -4.2634 -2.0014 0.9811
-0.3367 -4.3118 -2.0019 0.9811
0.0492 -4.3258 -2.0025 0.9811
0.4350 -4.3053 -2.0030 0.9811
0.8174 -4.2504 -2.0035 0.9811
1.1936 -4.1616 -2.0040 0.9811
1.5604 -4.0395 -2.0045 0.9811
2.2543 -3.6995 -2.0053 0.9811
2.5757 -3.4844 -2.0057 0.9811
3.1549 -2.9723 -2.0064 0.9811
3.6337 -2.3650 -2.0069 0.9811
3.8306 -2.0317 -2.0071 0.9811
4.1311 -1.3189 -2.0073 0.9811
4.2323 -0.9452 -2.0074 0.9811
4.3328 -0.1782 -2.0073 0.9811
3.6147 2.3895 -2.0057 0.9811
3.3865 2.7018 -2.0053 0.9811
2.5487 3.4996 -2.0040 0.9811
2.2258 3.7121 -2.0035 0.9811
1.1627 4.1657 -2.0019 0.9811
0.7863 4.2516 -2.0014 0.9811
0.0184 4.3214 -2.0003 0.9811
-0.3670 4.3047 -1.9998 0.9811
-0.7494 4.2537 -1.9993 0.9811
-1.1255 4.1689 -1.9988 0.9811
-1.4925 4.0509 -1.9983 0.9812
-1.8474 3.9008 -1.9979 0.9812
-3.0926 3.0062 -1.9964 0.9812
-1.3264 0.1951 -0.6206 0.9941
-1.3374 -0.0436 -0.6194 0.9941
-3.8276 -1.9886 -1.9966 0.9812
-3.6356 -2.3225 -1.9970 0.9812
-3.4146 -2.6380 -1.9973 0.9812
-2.8928 -3.2041 -1.9982 0.9812
-2.5961 -3.4502 -1.9986 0.9811
-1.9427 -3.8585 -1.9996 0.9811
-1.5912 -4.0174 -2.0002 0.9811
-0.4712 -4.2988 -2.0018 0.9811
0.6842 -4.2735 -2.0033 0.9811
1.4333 -4.0859 -2.0043 0.9811
1.7924 -3.9427 -2.0048 0.9811
2.1374 -3.7679 -2.0052 0.9811
2.4655 -3.5629 -2.0056 0.9811
2.7739 -3.3294 -2.0059 0.9811
3.0603 -3.0692 -2.0063 0.9811
3.3224 -2.7845 -2.0066 0.9811
3.7651 -2.1503 -2.0070 0.9811
4.0878 -1.4473 -2.0073 0.9811
4.3358 0.0736 -2.0072 0.9811
4.1605 1.2185 -2.0067 0.9811
4.0347 1.5845 -2.0065 0.9811
3.8767 1.9378 -2.0062 0.9811
3.6878 2.2755 -2.0058 0.9811
3.4695 2.5949 -2.0055 0.9811
3.2236 2.8934 -2.0050 0.9811
2.9520 3.1687 -2.0046 0.9811
2.3409 3.6410 -2.0037 0.9811
2.0063 3.8344 -2.0032 0.9811
1.6559 3.9970 -2.0026 0.9811
1.2924 4.1277 -2.0021 0.9811
0.9189 4.2254 -2.0016 0.9811
0.1534 4.3191 -2.0005 0.9811
-0.2324 4.3144 -2.0000 0.9811
-1.3653 4.0959 -1.9985 0.9811
-2.0704 3.7865 -1.9976 0.9812
-2.7092 3.3571 -1.9968 0.9812
-2.9973 3.1015 -1.9965 0.9812
-3.8909 1.8567 -1.9956 0.9812
-1.3179 0.3599 -0.6324 0.9940
-1.3164 0.2358 -0.6191 0.9941
-1.3376 0.1180 -0.6216 0.9941
-1.3154 -0.2393 -0.6189 0.9941
-1.3189 -0.3640 -0.6333 0.9940
-3.8877 -1.8679 -1.9965 0.9812
-3.7062 -2.2076 -1.9968 0.9812
-3.4951 -2.5299 -1.9972 0.9812
-3.2562 -2.8321 -1.9976 0.9812
-2.7024 -3.3671 -1.9985 0.9811
-2.0622 -3.7955 -1.9995 0.9811
-0.9845 -4.2094 -2.0010 0.9811
-0.6053 -4.2815 -2.0016 0.9811
-0.2210 -4.3196 -2.0021 0.9811
0.1652 -4.3233 -2.0026 0.9811
1.6682 -3.9964 -2.0046 0.9811
2.0185 -3.8326 -2.0050 0.9811
2.9628 -3.1632 -2.0062 0.9811
3.2336 -2.8868 -2.0065 0.9811
3.6960 -2.2668 -2.0069 0.9811
3.8837 -1.9283 -2.0071 0.9811
4.0405 -1.5743 -2.0072 0.9811
4.1650 -1.2077 -2.0073 0.9811
4.2562 -0.8314 -2.0074 0.9811
4.3133 -0.4484 -2.0073 0.9811
4.3240 0.3250 -2.0072 0.9811
3.9356 1.8158 -2.0063 0.9811
3.3126 2.7914 -2.0052 0.9811
3.0498 3.0751 -2.0048 0.9811
2.4537 3.5664 -2.0038 0.9811
1.7801 3.9437 -2.0028 0.9811
0.6720 4.2708 -2.0012 0.9811
-0.8630 4.2318 -1.9991 0.9811
-1.2368 4.1369 -1.9987 0.9811
-1.6004 4.0092 -1.9982 0.9812
-1.9512 3.8496 -1.9977 0.9812
-2.8991 3.1938 -1.9966 0.9812
-3.4195 2.6272 -1.9960 0.9812
-3.6398 2.3114 -1.9958 0.9812
-3.8311 1.9774 -1.9956 0.9812
-1.3274 0.4075 -0.6427 0.9939
-1.3038 0.2759 -0.6169 0.9941
-1.3328 0.1596 -0.6214 0.9941
-1.3385 -0.0796 -0.6207 0.9941
-1.3334 -0.4528 -0.6518 0.9938
-1.3193 -0.5839 -0.6678 0.9937
-3.3429 -2.7288 -1.9975 0.9812
-1.8387 -3.9095 -1.9998 0.9811
-1.4831 -4.0589 -2.0003 0.9811
-0.7387 -4.2601 -2.0014 0.9811
-0.3559 -4.3102 -2.0019 0.9811
0.0300 -4.3259 -2.0024 0.9811
1.5424 -4.0463 -2.0044 0.9811
1.8976 -3.8935 -2.0049 0.9811
2.2378 -3.7095 -2.0053 0.9811
2.5602 -3.4958 -2.0057 0.9811
2.8623 -3.2540 -2.0060 0.9811
3.6232 -2.3811 -2.0069 0.9811
3.8215 -2.0487 -2.0071 0.9811
3.9893 -1.6998 -2.0072 0.9811
4.1252 -1.3372 -2.0073 0.9811
4.2281 -0.9640 -2.0074 0.9811
4.3320 -0.1974 -2.0073 0.9811
4.2977 0.5754 -2.0071 0.9811
4.2288 0.9563 -2.0069 0.9811
3.9906 1.6921 -2.0064 0.9811
3.8232 2.0409 -2.0061 0.9811
2.8658 3.2465 -2.0045 0.9811
2.2423 3.7022 -2.0035 0.9811
0.0375 4.3213 -2.0003 0.9811
-0.7305 4.2570 -1.9993 0.9811
-1.1070 4.1739 -1.9988 0.9811
-2.4945 3.5202 -1.9971 0.9812
-2.7981 3.2831 -1.9967 0.9812
-3.0793 3.0199 -1.9964 0.9812
-3.3359 2.7328 -1.9961 0.9812
-1.3187 0.5864 -0.6680 0.9937
-1.3336 0.4555 -0.6523 0.9938
-1.3252 0.2009 -0.6204 0.9941
-1.3370 -0.0377 -0.6191 0.9941
-1.3332 -0.1573 -0.6214 0.9941
-1.3269 -0.4048 -0.6422 0.9939
-3.8364 -1.9716 -1.9966 0.9812
-3.6459 -2.3063 -1.9969 0.9812
-3.4263 -2.6228 -1.9973 0.9812
-3.1793 -2.9186 -1.9977 0.9812
-2.6114 -3.4386 -1.9986 0.9811
-2.2948 -3.6587 -1.9991 0.9811
-0.8714 -4.2346 -2.0012 0.9811
1.0442 -4.2011 -2.0038 0.9811
2.4496 -3.5738 -2.0056 0.9811
2.7591 -3.3417 -2.0059 0.9811
3.3100 -2.7991 -2.0065 0.9811
3.5469 -2.4931 -2.0068 0.9811
3.7555 -2.1670 -2.0070 0.9811
3.9341 -1.8235 -2.0072 0.9811
4.0813 -1.4654 -2.0073 0.9811
4.1959 -1.0956 -2.0073 0.9811
4.2769 -0.7170 -2.0074 0.9811
4.2568 0.8238 -2.0070 0.9811
4.1659 1.2000 -2.0067 0.9811
4.0417 1.5666 -2.0065 0.9811
3.8853 1.9206 -2.0062 0.9811
3.6979 2.2591 -2.0058 0.9811
2.0233 3.8255 -2.0032 0.9811
1.3107 4.1220 -2.0021 0.9811
0.9376 4.2213 -2.0016 0.9811
0.5572 4.2870 -2.0011 0.9811
-1.3471 4.1020 -1.9985 0.9811
-2.6943 3.3691 -1.9969 0.9812
-2.9836 3.1148 -1.9965 0.9812
-3.7003 2.2130 -1.9958 0.9812
-3.8827 1.8739 -1.9956 0.9812
-1.3320 0.5019 -0.6589 0.9937
-1.3195 0.3666 -0.6339 0.9940
-1.3372 0.1239 -0.6216 0.9941
-1.3377 -0.1156 -0.6215 0.9941
-1.3173 -0.3573 -0.6318 0.9940
-1.3327 -0.4927 -0.6577 0.9938
-3.7159 -2.1912 -1.9968 0.9812
-3.5063 -2.5143 -1.9972 0.9812
-3.2687 -2.8176 -1.9976 0.9812
-2.4078 -3.5849 -1.9989 0.9811
-1.3738 -4.0976 -2.0005 0.9811
-0.6243 -4.2787 -2.0015 0.9811
-0.2402 -4.3185 -2.0021 0.9811
0.1460 -4.3239 -2.0026 0.9811
0.9124 -4.2313 -2.0036 0.9811
1.6505 -4.0038 -2.0046 0.9811
2.0014 -3.8415 -2.0050 0.9811
3.2207 -2.9011 -2.0064 0.9811
3.4671 -2.6026 -2.0067 0.9811
3.6858 -2.2832 -2.0069 0.9811
3.8751 -1.9455 -2.0071 0.9811
4.2525 -0.8503 -2.0074 0.9811
4.3254 0.3059 -2.0072 0.9811
4.2806 0.6904 -2.0070 0.9811
4.2015 1.0693 -2.0068 0.9811
4.0889 1.4396 -2.0066 0.9811
3.7669 2.1426 -2.0060 0.9811
3.5601 2.4696 -2.0056 0.9811
3.3250 2.7768 -2.0052 0.9811
2.4696 3.5555 -2.0039 0.9811
2.1421 3.7607 -2.0034 0.9811
1.7976 3.9358 -2.0028 0.9811
1.0692 4.1903 -2.0018 0.9811
0.6910 4.2679 -2.0013 0.9811
0.3074 4.3113 -2.0007 0.9811
-0.4632 4.2951 -1.9997 0.9811
-2.2701 3.6696 -1.9974 0.9812
-3.8223 1.9944 -1.9956 0.9812
-1.3266 0.5478 -0.6643 0.9937
-1.3285 0.4143 -0.6441 0.9939
-1.3018 0.2815 -0.6165 0.9941
-1.3385 -0.0736 -0.6205 0.9941
-1.3269 -0.1928 -0.6206 0.9941
-1.3327 -0.4459 -0.6505 0.9938
-3.7823 -2.0739 -1.9967 0.9812
-1.5011 -4.0523 -2.0003 0.9811
-1.1339 -4.1711 -2.0008 0.9811
-0.7576 -4.2568 -2.0014 0.9811
-0.3750 -4.3085 -2.0019 0.9811
0.0108 -4.3259 -2.0024 0.9811
1.5244 -4.0531 -2.0044 0.9811
2.8478 -3.2667 -2.0060 0.9811
3.1284 -3.0001 -2.0063 0.9811
3.8123 -2.0656 -2.0071 0.9811
3.9817 -1.7175 -2.0072 0.9811
4.2238 -0.9827 -2.0074 0.9811
4.2946 -0.6021 -2.0074 0.9811
4.3311 -0.2166 -2.0073 0.9811
4.3330 0.1705 -2.0072 0.9811
4.2330 0.9376 -2.0069 0.9811
4.1321 1.3112 -2.0067 0.9811
3.9981 1.6743 -2.0064 0.9811
3.8322 2.0240 -2.0061 0.9811
3.6358 2.3573 -2.0057 0.9811
3.4104 2.6717 -2.0054 0.9811
2.5797 3.4769 -2.0040 0.9811
2.2587 3.6923 -2.0035 0.9811
1.9199 3.8780 -2.0030 0.9811
1.1997 4.1553 -2.0020 0.9811
0.8241 4.2446 -2.0014 0.9811
-1.0885 4.1788 -1.9988 0.9811
-2.1545 3.7390 -1.9975 0.9812
-2.4789 3.5312 -1.9971 0.9812
-2.7835 3.2955 -1.9967 0.9812
-3.3238 2.7476 -1.9961 0.9812
-3.5552 2.4399 -1.9959 0.9812
-1.3171 0.5927 -0.6686 0.9937
-1.3093 0.3263 -0.6246 0.9941
-1.3238 0.2067 -0.6202 0.9941
-1.3385 0.0879 -0.6209 0.9941
-1.3365 -0.0317 -0.6188 0.9941
-3.8451 -1.9546 -1.9966 0.9812
-3.4379 -2.6076 -1.9973 0.9812
-2.9211 -3.1783 -1.9981 0.9812
-2.6265 -3.4269 -1.9986 0.9811
-2.3110 -3.6484 -1.9991 0.9811
-1.9769 -3.8410 -1.9996 0.9811
-1.2636 -4.1333 -2.0006 0.9811
-0.5094 -4.2943 -2.0017 0.9811
0.2619 -4.3188 -2.0028 0.9811
0.6462 -4.2793 -2.0033 0.9811
1.0256 -4.2056 -2.0038 0.9811
1.3969 -4.0984 -2.0043 0.9811
1.7573 -3.9583 -2.0047 0.9811
2.1038 -3.7867 -2.0051 0.9811
3.2975 -2.8138 -2.0065 0.9811
3.7458 -2.1836 -2.0070 0.9811
4.3223 -0.3519 -2.0073 0.9811
4.2604 0.8049 -2.0070 0.9811
4.1712 1.1815 -2.0068 0.9811
3.7079 2.2427 -2.0059 0.9811
3.4924 2.5640 -2.0055 0.9811
3.2492 2.8647 -2.0051 0.9811
2.6873 3.3949 -2.0042 0.9811
2.3732 3.6202 -2.0037 0.9811
1.6913 3.9822 -2.0027 0.9811
1.3290 4.1162 -2.0022 0.9811
0.9564 4.2172 -2.0016 0.9811
0.5762 4.2845 -2.0011 0.9811
0.1917 4.3177 -2.0006 0.9811
-0.5782 4.2808 -1.9995 0.9811
-0.9574 4.2111 -1.9990 0.9811
-1.6897 3.9721 -1.9981 0.9812
-2.3675 3.6072 -1.9972 0.9812
-2.6793 3.3810 -1.9969 0.9812
-3.2364 2.8503 -1.9962 0.9812
-3.4773 2.5499 -1.9960 0.9812
-3.6905 2.2294 -1.9958 0.9812
-3.8743 1.8911 -1.9956 0.9812
-1.3209 0.3734 -0.6354 0.9940
-1.3131 0.2473 -0.6185 0.9941
-1.3366 0.1299 -0.6216 0.9941
-1.3330 -0.4862 -0.6568 0.9938
-3.9041 -1.8333 -1.9965 0.9812
-3.2812 -2.8030 -1.9976 0.9812
-3.0187 -3.0852 -1.9980 0.9812
-2.4236 -3.5741 -1.9989 0.9811
-2.0957 -3.7770 -1.9994 0.9811
-1.3920 -4.0914 -2.0004 0.9811
-1.0218 -4.2003 -2.0010 0.9811
0.8936 -4.2353 -2.0036 0.9811
1.6327 -4.0110 -2.0046 0.9811
2.6379 -3.4378 -2.0058 0.9811
2.9345 -3.1893 -2.0061 0.9811
3.2078 -2.9153 -2.0064 0.9811
3.6757 -2.2995 -2.0069 0.9811
3.8665 -1.9627 -2.0071 0.9811
4.1541 -1.2446 -2.0073 0.9811
4.3092 -0.4867 -2.0073 0.9811
4.2836 0.6714 -2.0070 0.9811
4.0953 1.4215 -2.0066 0.9811
3.7764 2.1259 -2.0060 0.9811
3.5711 2.4538 -2.0056 0.9811
2.4853 3.5446 -2.0039 0.9811
2.3560 -3.3411 -2.0054 0.9820
2.6451 -3.1182 -2.0057 0.9819
2.9131 -2.8702 -2.0060 0.9819
3.1579 -2.5993 -2.0063 0.9819
3.8688 -1.3313 -2.0070 0.9819
3.9722 -0.9809 -2.0070 0.9819
4.0439 -0.6227 -2.0070 0.9819
4.0640 0.4701 -2.0068 0.9819
4.0055 0.8306 -2.0066 0.9819
3.9151 1.1845 -2.0064 0.9819
3.7934 1.5287 -2.0062 0.9819
3.6414 1.8607 -2.0059 0.9819
3.4603 2.1778 -2.0055 0.9819
3.0172 2.7569 -2.0048 0.9820
2.4783 3.2477 -2.0039 0.9820
2.1782 3.4550 -2.0035 0.9820
0.1086 4.0769 -2.0005 0.9820
-0.2554 4.0693 -2.0000 0.9820
-1.3227 3.8538 -1.9986 0.9820
-1.9856 3.5559 -1.9978 0.9820
-2.2944 3.3640 -1.9974 0.9820
-2.5849 3.1454 -1.9971 0.9820
-2.8547 2.9019 -1.9967 0.9820
-3.1017 2.6354 -1.9965 0.9820
-3.3240 2.3479 -1.9962 0.9820
-3.5198 2.0419 -1.9960 0.9820
-1.1556 0.4179 -0.6028 0.9945
-1.1583 0.3053 -0.5876 0.9947
-1.1815 0.2009 -0.5879 0.9947
-1.1948 0.0947 -0.5879 0.9947
-1.1959 -0.0122 -0.5867 0.9947
-1.1929 -0.1191 -0.5881 0.9947
-1.1765 -0.2249 -0.5876 0.9947
-1.1529 -0.4438 -0.6060 0.9945
-3.4793 -2.1145 -1.9971 0.9820
-3.0493 -2.7000 -1.9978 0.9820
-2.5221 -3.2002 -1.9987 0.9820
-2.2271 -3.4132 -1.9991 0.9820
-1.9142 -3.5991 -1.9996 0.9820
-0.8938 -3.9804 -2.0011 0.9820
-0.5353 -4.0453 -2.0016 0.9820
-0.1724 -4.0779 -2.0021 0.9820
0.5552 -4.0457 -2.0031 0.9820
1.6075 -3.7569 -2.0045 0.9820
2.2504 -3.4128 -2.0052 0.9820
2.5462 -3.1991 -2.0056 0.9819
2.8219 -2.9597 -2.0059 0.9819
3.0751 -2.6966 -2.0062 0.9819
3.3037 -2.4118 -2.0064 0.9819
3.8253 -1.4515 -2.0069 0.9819
4.0225 -0.7488 -2.0070 0.9819
4.0732 -0.3870 -2.0070 0.9819
4.0768 0.3429 -2.0068 0.9819
3.8394 1.4095 -2.0062 0.9819
3.3277 2.3746 -2.0053 0.9820
3.1021 2.6615 -2.0049 0.9820
1.6466 3.7360 -2.0027 0.9820
0.9561 3.9671 -2.0017 0.9820
0.5983 4.0356 -2.0012 0.9820
0.2359 4.0718 -2.0007 0.9820
-0.4910 4.0470 -1.9997 0.9820
-0.8499 3.9861 -1.9992 0.9820
-1.2017 3.8935 -1.9988 0.9820
-1.5439 3.7700 -1.9983 0.9820
-2.1883 3.4343 -1.9975 0.9820
-2.4855 3.2249 -1.9972 0.9820
-3.0180 2.7311 -1.9966 0.9820
-3.2491 2.4507 -1.9963 0.9820
-1.1590 0.3446 -0.5931 0.9946
-1.1917 0.1320 -0.5881 0.9947
-1.1567 -0.4042 -0.6010 0.9946
-1.1408 -0.5170 -0.6144 0.9944
-3.5434 -2.0046 -1.9970 0.9820
-3.3510 -2.3131 -1.9973 0.9820
-2.8879 -2.8728 -1.9981 0.9820
-2.6207 -3.1196 -1.9985 0.9820
-1.7024 -3.7047 -1.9999 0.9820
-1.0176 -3.9502 -2.0009 0.9820
-0.6614 -4.0262 -2.0014 0.9820
0.0645 -4.0817 -2.0024 0.9820
0.4285 -4.0607 -2.0029 0.9820
1.1437 -3.9218 -2.0039 0.9820
1.4892 -3.8050 -2.0043 0.9820
1.8231 -3.6578 -2.0047 0.9820
2.1425 -3.4813 -2.0051 0.9820
2.4449 -3.2769 -2.0055 0.9819
2.9892 -2.7912 -2.0061 0.9819
3.4383 -2.2162 -2.0066 0.9819
3.7780 -1.5703 -2.0069 0.9819
3.9032 -1.2271 -2.0070 0.9819
4.0592 -0.5141 -2.0070 0.9819
4.0887 -0.1500 -2.0070 0.9819
3.8818 1.2889 -2.0063 0.9819
3.7509 1.6298 -2.0061 0.9819
3.5900 1.9576 -2.0058 0.9819
2.3902 3.3128 -2.0038 0.9820
2.0847 3.5120 -2.0033 0.9820
1.4268 3.8246 -2.0024 0.9820
1.0797 3.9357 -2.0019 0.9820
0.7242 4.0153 -2.0014 0.9820
-0.0008 4.0780 -2.0004 0.9820
-1.0796 3.9295 -1.9989 0.9820
-2.3836 3.3011 -1.9973 0.9820
-2.6681 3.0749 -1.9970 0.9820
-3.1711 2.5512 -1.9964 0.9820
-3.3857 2.2579 -1.9962 0.9820
-1.1118 0.6057 -0.6211 0.9944
-1.1579 0.3840 -0.5984 0.9946
-1.1869 0.1692 -0.5881 0.9947
-1.1962 0.0626 -0.5876 0.9947
-1.1894 -0.1511 -0.5881 0.9947
-1.1690 -0.2561 -0.5870 0.9947
-1.1587 -0.3647 -0.5958 0.9946
-1.1481 -0.4777 -0.6100 0.9945
-1.1205 -0.5885 -0.6208 0.9944
-3.2116 -2.5040 -1.9976 0.9820
-2.9760 -2.7810 -1.9980 0.9820
-2.4356 -3.2669 -1.9988 0.9820
