ply
format ascii 1.0
element vertex 1597
property float32 x
property float32 y
property float32 z
property float32 I
end_header
-1.1883 0.1593 -0.5881 0.9947
-1.1964 -0.0543 -0.5874 0.9947
-1.1665 -0.2657 -0.5868 0.9947
-1.1463 -0.4882 -0.6112 0.9945
-1.1158 -0.5979 -0.6210 0.9944
-3.4029 -2.2354 -1.9972 0.9820
-3.1904 -2.5304 -1.9975 0.9820
-2.9525 -2.8054 -1.9978 0.9820
-2.6910 -3.0581 -1.9982 0.9820
-1.7865 -3.6636 -1.9994 0.9820
0.6967 -4.0226 -2.0026 0.9820
1.0530 -3.9453 -2.0030 0.9820
1.4010 -3.8365 -2.0034 0.9820
1.7379 -3.6970 -2.0038 0.9820
2.3681 -3.3306 -2.0046 0.9820
2.6561 -3.1067 -2.0049 0.9820
3.1668 -2.5861 -2.0055 0.9819
3.3853 -2.2936 -2.0058 0.9819
3.5767 -1.9827 -2.0060 0.9819
3.7396 -1.6559 -2.0062 0.9819
3.8727 -1.3158 -2.0063 0.9819
3.9748 -0.9652 -2.0064 0.9819
4.0451 -0.6068 -2.0064 0.9819
4.0832 -0.2436 -2.0065 0.9819
4.0886 0.1215 -2.0064 0.9819
4.0613 0.4857 -2.0063 0.9819
3.7869 1.5432 -2.0059 0.9819
3.4516 2.1910 -2.0054 0.9820
3.2419 2.4897 -2.0051 0.9820
3.0065 2.7685 -2.0048 0.9820
2.7470 3.0251 -2.0044 0.9820
1.5145 3.7916 -2.0028 0.9820
1.1700 3.9107 -2.0023 0.9820
0.4563 4.0545 -2.0014 0.9820
-0.2712 4.0692 -2.0005 0.9820
-1.9999 3.5492 -1.9983 0.9820
-2.5977 3.1363 -1.9976 0.9820
-3.3339 2.3356 -1.9968 0.9820
-3.5286 2.0287 -1.9965 0.9820
-1.1560 0.4130 -0.6021 0.9945
-1.1581 0.3005 -0.5869 0.9947
-1.1823 0.1963 -0.5879 0.9947
-1.1951 0.0901 -0.5879 0.9947
-1.1925 -0.1237 -0.5881 0.9947
-1.1755 -0.2294 -0.5875 0.9947
-1.1303 -0.5609 -0.6190 0.9944
-3.4709 -2.1279 -1.9971 0.9820
-2.7851 -2.9723 -1.9980 0.9820
-2.5093 -3.2095 -1.9984 0.9820
-2.2135 -3.4212 -1.9988 0.9820
-1.2296 -3.8877 -2.0001 0.9820
-0.8781 -3.9827 -2.0006 0.9820
-0.5195 -4.0461 -2.0010 0.9820
-0.1566 -4.0773 -2.0015 0.9820
0.9291 -3.9760 -2.0028 0.9820
1.2803 -3.8781 -2.0033 0.9820
1.9498 -3.5904 -2.0041 0.9820
2.8322 -2.9476 -2.0052 0.9820
3.0843 -2.6836 -2.0054 0.9819
3.9426 -1.0889 -2.0064 0.9819
4.0242 -0.7329 -2.0064 0.9819
4.0736 -0.3711 -2.0065 0.9819
4.0745 0.3586 -2.0064 0.9819
4.0261 0.7205 -2.0063 0.9819
3.8334 1.4242 -2.0060 0.9819
3.6907 1.7602 -2.0057 0.9819
3.5186 2.0822 -2.0055 0.9819
3.3183 2.3874 -2.0052 0.9820
2.2723 3.3946 -2.0038 0.9820
1.2917 3.8726 -2.0025 0.9820
0.5828 4.0386 -2.0015 0.9820
0.2202 4.0735 -2.0011 0.9820
-0.1440 4.0760 -2.0006 0.9820
-0.5068 4.0460 -2.0002 0.9820
-0.8655 3.9838 -1.9997 0.9820
-1.5589 3.7650 -1.9989 0.9820
-1.8881 3.6102 -1.9985 0.9820
-2.2022 3.4268 -1.9981 0.9820
-2.4986 3.2161 -1.9977 0.9820
-3.2595 2.4388 -1.9968 0.9820
-3.4636 2.1381 -1.9966 0.9820
-1.1293 0.5648 -0.6193 0.9944
-1.1921 0.1274 -0.5881 0.9947
-1.1962 0.0205 -0.5868 0.9947
-1.1953 -0.0864 -0.5878 0.9947
-1.1830 -0.1927 -0.5879 0.9947
-3.3419 -2.3259 -1.9972 0.9820
-2.8764 -2.8837 -1.9979 0.9820
-2.6082 -3.1293 -1.9983 0.9820
-2.3192 -3.3501 -1.9987 0.9820
-0.6456 -4.0276 -2.0009 0.9820
0.0803 -4.0801 -2.0018 0.9820
0.8044 -4.0027 -2.0027 0.9820
1.1584 -3.9159 -2.0031 0.9820
1.5034 -3.7978 -2.0036 0.9820
1.8365 -3.6493 -2.0040 0.9820
2.9988 -2.7786 -2.0053 0.9820
3.4456 -2.2021 -2.0059 0.9819
3.7828 -1.5551 -2.0062 0.9819
3.9066 -1.2116 -2.0063 0.9819
4.0882 -0.1341 -2.0064 0.9819
3.9773 0.9529 -2.0062 0.9819
3.8762 1.3038 -2.0060 0.9819
3.5821 1.9713 -2.0056 0.9819
3.3915 2.2826 -2.0053 0.9820
3.1739 2.5756 -2.0050 0.9820
2.9310 2.8480 -2.0047 0.9820
2.6648 3.0975 -2.0043 0.9820
2.3775 3.3222 -2.0039 0.9820
2.0712 3.5203 -2.0035 0.9820
1.7486 3.6902 -2.0031 0.9820
0.7088 4.0187 -2.0017 0.9820
0.3474 4.0650 -2.0012 0.9820
-0.3802 4.0602 -2.0003 0.9820
-1.0951 3.9263 -1.9994 0.9820
-1.4406 3.8121 -1.9990 0.9820
-2.0942 3.4941 -1.9982 0.9820
-2.3971 3.2928 -1.9978 0.9820
-3.1818 2.5395 -1.9969 0.9820
-1.1581 0.3791 -0.5978 0.9946
-1.1876 0.1646 -0.5881 0.9947
-1.1963 0.0580 -0.5875 0.9947
-1.1964 -0.0490 -0.5874 0.9947
-1.1888 -0.1557 -0.5881 0.9947
-1.1678 -0.2606 -0.5869 0.9947
-1.1473 -0.4826 -0.6105 0.9945
-3.4128 -2.2203 -1.9971 0.9820
-3.2016 -2.5162 -1.9974 0.9820
-2.9649 -2.7922 -1.9978 0.9820
-2.7045 -3.0461 -1.9981 0.9820
-2.4225 -3.2758 -1.9985 0.9820
-2.1211 -3.4795 -1.9989 0.9820
-1.8027 -3.6556 -1.9993 0.9820
-1.4698 -3.8027 -1.9998 0.9820
0.3170 -4.0692 -2.0021 0.9820
1.0354 -3.9499 -2.0030 0.9820
2.3532 -3.3411 -2.0046 0.9820
2.6423 -3.1184 -2.0049 0.9820
2.9104 -2.8708 -2.0052 0.9820
3.3750 -2.3086 -2.0058 0.9819
3.7322 -1.6725 -2.0062 0.9819
3.8668 -1.3330 -2.0063 0.9819
4.0424 -0.6248 -2.0064 0.9819
4.0821 -0.2618 -2.0065 0.9819
4.0891 0.1034 -2.0064 0.9819
4.0053 0.8282 -2.0062 0.9819
3.7937 1.5264 -2.0059 0.9819
3.4613 2.1757 -2.0054 0.9820
3.2530 2.4753 -2.0051 0.9820
1.8632 3.6340 -2.0032 0.9820
1.1873 3.9055 -2.0023 0.9820
0.8341 3.9950 -2.0019 0.9820
0.4743 4.0525 -2.0014 0.9820
-0.2532 4.0704 -2.0005 0.9820
-1.3209 3.8556 -1.9991 0.9820
-1.9841 3.5581 -1.9983 0.9820
-2.2931 3.3663 -1.9980 0.9820
-3.1010 2.6378 -1.9970 0.9820
-1.1377 0.5313 -0.6159 0.9944
-1.1959 -0.0115 -0.5867 0.9947
-1.1767 -0.2242 -0.5876 0.9947
-3.4803 -2.1125 -1.9970 0.9820
-2.7982 -2.9599 -1.9980 0.9820
-2.5235 -3.1983 -1.9984 0.9820
-1.9159 -3.5972 -1.9992 0.9820
-1.5878 -3.7546 -1.9996 0.9820
-1.2468 -3.8821 -2.0001 0.9820
-0.8958 -3.9788 -2.0005 0.9820
0.1897 -4.0768 -2.0019 0.9820
0.5527 -4.0445 -2.0024 0.9820
0.9114 -3.9800 -2.0028 0.9820
2.5434 -3.1992 -2.0048 0.9820
2.8191 -2.9601 -2.0051 0.9820
3.3011 -2.4128 -2.0057 0.9819
3.8232 -1.4532 -2.0063 0.9819
3.9377 -1.1064 -2.0064 0.9819
4.0719 -0.3892 -2.0065 0.9819
3.6985 1.7438 -2.0057 0.9819
3.3289 2.3726 -2.0052 0.9820
3.1035 2.6597 -2.0049 0.9820
2.8534 2.9254 -2.0045 0.9820
2.2874 3.3845 -2.0038 0.9820
1.3089 3.8668 -2.0025 0.9820
-0.1259 4.0767 -2.0006 0.9820
-2.1870 3.4365 -1.9981 0.9820
-2.4843 3.2272 -1.9977 0.9820
-2.7618 2.9922 -1.9974 0.9820
-3.4541 2.1535 -1.9966 0.9820
-1.1735 0.2382 -0.5874 0.9947
-1.1916 0.1327 -0.5881 0.9947
-1.1963 0.0258 -0.5870 0.9947
-1.1956 -0.0811 -0.5878 0.9947
-1.1409 -0.5163 -0.6143 0.9944
-1.0196 -3.9485 -2.0004 0.9820
-0.6635 -4.0246 -2.0008 0.9820
-0.3019 -4.0687 -2.0013 0.9820
0.0622 -4.0804 -2.0018 0.9820
0.4260 -4.0595 -2.0022 0.9820
0.7866 -4.0062 -2.0027 0.9820
1.1410 -3.9210 -2.0031 0.9820
3.2240 -2.5146 -2.0056 0.9819
3.4358 -2.2173 -2.0058 0.9819
3.6203 -1.9022 -2.0060 0.9819
3.7758 -1.5719 -2.0062 0.9819
3.9012 -1.2289 -2.0063 0.9819
3.9954 -0.8761 -2.0064 0.9819
4.0577 -0.5162 -2.0064 0.9819
4.0876 -0.1522 -2.0064 0.9819
4.0848 0.2130 -2.0064 0.9819
4.0493 0.5764 -2.0063 0.9819
3.7513 1.6275 -2.0058 0.9819
3.4016 2.2676 -2.0053 0.9820
2.9436 2.8350 -2.0047 0.9820
2.6786 3.0857 -2.0043 0.9820
1.4292 3.8244 -2.0026 0.9820
1.0821 3.9357 -2.0022 0.9820
0.3655 4.0635 -2.0013 0.9820
-0.7229 4.0125 -1.9999 0.9820
-1.7582 3.6756 -1.9986 0.9820
-2.6671 3.0773 -1.9975 0.9820
-2.9305 2.8267 -1.9972 0.9820
-1.1115 0.6064 -0.6211 0.9944
-1.1446 0.4976 -0.6122 0.9945
-1.1579 0.3847 -0.5985 0.9946
-1.1868 0.1699 -0.5881 0.9947
-1.1965 -0.0436 -0.5873 0.9947
-1.1895 -0.1504 -0.5881 0.9947
-1.1424 -3.9144 -2.0002 0.9820
0.6610 -4.0285 -2.0025 0.9820
1.0179 -3.9544 -2.0030 0.9820
1.7050 -3.7122 -2.0038 0.9820
2.0297 -3.5460 -2.0042 0.9820
2.8976 -2.8836 -2.0052 0.9820
3.1437 -2.6141 -2.0055 0.9819
3.5589 -2.0144 -2.0060 0.9819
3.7248 -1.6890 -2.0062 0.9819
4.0396 -0.6428 -2.0064 0.9819
4.0895 0.0852 -2.0064 0.9819
4.0089 0.8104 -2.0062 0.9819
3.9204 1.1647 -2.0061 0.9819
3.8005 1.5096 -2.0059 0.9819
3.2640 2.4609 -2.0051 0.9820
2.7739 3.0006 -2.0044 0.9820
2.4947 3.2355 -2.0041 0.9820
2.1957 3.4444 -2.0037 0.9820
1.5481 3.7781 -2.0028 0.9820
1.2047 3.9003 -2.0024 0.9820
0.4923 4.0504 -2.0014 0.9820
-0.5972 4.0334 -2.0000 0.9820
-2.5698 3.1593 -1.9976 0.9820
-1.1585 0.3116 -0.5885 0.9947
-1.1944 0.1007 -0.5880 0.9947
-1.1957 -0.0062 -0.5865 0.9947
-1.1778 -0.2190 -0.5876 0.9947
-1.1588 -0.3246 -0.5903 0.9947
-1.1536 -0.4375 -0.6052 0.9945
-1.1332 -0.5499 -0.6178 0.9944
-3.0625 -2.6844 -1.9976 0.9820
-2.5377 -3.1870 -1.9984 0.9820
-1.6044 -3.7475 -1.9996 0.9820
-1.2640 -3.8765 -2.0001 0.9820
-0.5554 -4.0412 -2.0010 0.9820
-0.1928 -4.0756 -2.0014 0.9820
0.1716 -4.0775 -2.0019 0.9820
0.5347 -4.0469 -2.0024 0.9820
1.2458 -3.8892 -2.0032 0.9820
1.9178 -3.6075 -2.0041 0.9820
2.2323 -3.4227 -2.0044 0.9820
3.0603 -2.7109 -2.0054 0.9820
3.4941 -2.1245 -2.0059 0.9819
3.8167 -1.4701 -2.0062 0.9819
3.9328 -1.1239 -2.0064 0.9819
4.0175 -0.7687 -2.0064 0.9819
4.0701 -0.4073 -2.0065 0.9819
4.0902 -0.0426 -2.0064 0.9819
3.9550 1.0416 -2.0062 0.9819
3.7062 1.7274 -2.0058 0.9819
3.1153 2.6459 -2.0049 0.9820
2.5948 3.1562 -2.0042 0.9820
2.3024 3.3744 -2.0038 0.9820
1.9919 3.5655 -2.0034 0.9820
1.6655 3.7282 -2.0030 0.9820
0.9762 3.9630 -2.0021 0.9820
-0.4709 4.0504 -2.0002 0.9820
-0.8301 3.9914 -1.9998 0.9820
-1.1825 3.9006 -1.9993 0.9820
-1.5254 3.7788 -1.9989 0.9820
-1.8560 3.6269 -1.9985 0.9820
-2.1717 3.4462 -1.9981 0.9820
-2.4700 3.2382 -1.9978 0.9820
-3.0051 2.7470 -1.9971 0.9820
-3.4445 2.1688 -1.9966 0.9820
-1.1958 -0.0757 -0.5877 0.9947
-1.1604 -0.2863 -0.5863 0.9947
-1.1053 -0.6180 -0.6212 0.9944
-3.1447 -2.5873 -1.9975 0.9820
-2.9018 -2.8580 -1.9979 0.9820
-2.3488 -3.3293 -1.9986 0.9820
-2.0429 -3.5263 -1.9990 0.9820
-1.7205 -3.6952 -1.9995 0.9820
-1.3844 -3.8348 -1.9999 0.9820
-1.0371 -3.9439 -2.0003 0.9820
-0.6813 -4.0216 -2.0008 0.9820
0.0441 -4.0806 -2.0017 0.9820
1.1236 -3.9260 -2.0031 0.9820
2.4275 -3.2878 -2.0047 0.9820
2.7115 -3.0586 -2.0050 0.9820
2.9740 -2.8050 -2.0053 0.9820
3.2127 -2.5289 -2.0056 0.9819
3.6118 -1.9183 -2.0060 0.9819
4.0554 -0.5342 -2.0064 0.9819
4.0869 -0.1704 -2.0064 0.9819
4.0857 0.1948 -2.0064 0.9819
3.4117 2.2525 -2.0053 0.9820
2.9562 2.8219 -2.0047 0.9820
2.6923 3.0738 -2.0043 0.9820
2.4069 3.3010 -2.0039 0.9820
2.1024 3.5018 -2.0035 0.9820
0.7444 4.0124 -2.0018 0.9820
0.3835 4.0619 -2.0013 0.9820
-1.4067 3.8249 -1.9990 0.9820
-1.7419 3.6834 -1.9986 0.9820
-2.3677 3.3140 -1.9979 0.9820
-2.9180 2.8397 -1.9972 0.9820
-3.3752 2.2754 -1.9967 0.9820
-1.1436 0.5032 -0.6129 0.9944
-1.1625 0.2795 -0.5865 0.9947
-1.1859 0.1751 -0.5880 0.9947
-1.1960 0.0686 -0.5876 0.9947
-1.1902 -0.1451 -0.5881 0.9947
-1.1491 -0.4714 -0.6092 0.9945
-1.1232 -0.5827 -0.6207 0.9944
-3.2238 -2.4876 -1.9974 0.9820
-2.7314 -3.0219 -1.9981 0.9820
-1.8351 -3.6394 -1.9993 0.9820
-1.5034 -3.7894 -1.9997 0.9820
-1.1597 -3.9093 -2.0002 0.9820
-0.8066 -3.9980 -2.0006 0.9820
-0.4469 -4.0550 -2.0011 0.9820
-0.0834 -4.0796 -2.0016 0.9820
0.2809 -4.0717 -2.0020 0.9820
1.0003 -3.9588 -2.0029 0.9820
1.3497 -3.8547 -2.0034 0.9820
1.6885 -3.7197 -2.0038 0.9820
2.3234 -3.3618 -2.0046 0.9820
3.3543 -2.3384 -2.0058 0.9819
3.5500 -2.0301 -2.0060 0.9819
3.8548 -1.3673 -2.0063 0.9819
4.0367 -0.6607 -2.0064 0.9819
4.0898 0.0671 -2.0064 0.9819
4.0674 0.4316 -2.0064 0.9819
3.9255 1.1472 -2.0061 0.9819
3.8072 1.4927 -2.0059 0.9819
3.4806 2.1449 -2.0054 0.9819
3.2749 2.4464 -2.0051 0.9820
2.7872 2.9883 -2.0045 0.9820
1.2220 3.8949 -2.0024 0.9820
0.8695 3.9875 -2.0019 0.9820
0.5103 4.0482 -2.0015 0.9820
0.1471 4.0766 -2.0010 0.9820
-0.9367 3.9674 -1.9996 0.9820
-1.6261 3.7363 -1.9988 0.9820
-2.2632 3.3866 -1.9980 0.9820
-2.5558 3.1707 -1.9977 0.9820
-3.0775 2.6653 -1.9970 0.9820
-3.3026 2.3799 -1.9968 0.9820
-3.5013 2.0756 -1.9966 0.9820
-1.1350 0.5424 -0.6171 0.9944
-1.1544 0.4299 -0.6043 0.9945
-1.1587 0.3171 -0.5893 0.9947
-1.1940 0.1060 -0.5880 0.9947
0.2943 3.8463 -2.0012 0.9828
-0.0499 3.8564 -2.0008 0.9828
-0.3936 3.8357 -2.0003 0.9828
-1.3941 3.5924 -1.9991 0.9828
-1.7087 3.4531 -1.9987 0.9828
-2.5606 2.8760 -1.9977 0.9828
-2.8065 2.6358 -1.9974 0.9828
-1.0190 0.5384 -0.5979 0.9948
-1.0506 0.4402 -0.5909 0.9949
-1.0627 0.3375 -0.5784 0.9950
-1.0803 0.2395 -0.5740 0.9950
-1.1064 -0.0551 -0.5747 0.9950
-1.0980 -0.1537 -0.5752 0.9950
-1.0483 -0.4519 -0.5922 0.9949
-2.5318 -2.9031 -1.9983 0.9828
-1.9765 -3.3080 -1.9991 0.9828
-1.6739 -3.4718 -1.9995 0.9828
-1.0308 -3.7155 -2.0003 0.9828
-0.0104 -3.8583 -2.0016 0.9828
0.6756 -3.8004 -2.0025 0.9828
1.0121 -3.7258 -2.0029 0.9828
1.3407 -3.6214 -2.0033 0.9827
2.2528 -3.1390 -2.0044 0.9827
2.5243 -2.9260 -2.0048 0.9827
3.0048 -2.4316 -2.0053 0.9827
3.3898 -1.8594 -2.0057 0.9827
3.7618 -0.8958 -2.0061 0.9827
3.8268 -0.5567 -2.0062 0.9827
3.8612 -0.2132 -2.0062 0.9827
3.8375 0.4762 -2.0061 0.9827
3.7795 0.8166 -2.0060 0.9827
3.5737 1.4749 -2.0056 0.9827
2.8308 2.6301 -2.0046 0.9827
2.5845 2.8716 -2.0042 0.9827
2.3176 3.0901 -2.0039 0.9827
2.0324 3.2839 -2.0035 0.9827
1.7310 3.4514 -2.0031 0.9828
0.7550 3.7841 -2.0018 0.9828
0.4144 3.8355 -2.0014 0.9828
0.0706 3.8563 -2.0009 0.9828
-0.2735 3.8464 -2.0005 0.9828
-0.6154 3.8059 -2.0000 0.9828
-0.9522 3.7350 -1.9996 0.9828
-1.2813 3.6345 -1.9992 0.9828
-1.6001 3.5050 -1.9988 0.9828
-1.9060 3.3477 -1.9985 0.9828
-2.1966 3.1638 -1.9981 0.9828
-2.7229 2.7223 -1.9975 0.9828
-2.9545 2.4683 -1.9972 0.9828
-3.1625 2.1947 -1.9970 0.9828
-1.0431 0.4759 -0.5948 0.9948
-1.0600 0.3734 -0.5830 0.9949
-1.0943 0.1767 -0.5751 0.9950
-1.1064 -0.0205 -0.5741 0.9950
-1.1023 -0.1193 -0.5752 0.9950
-1.0546 -0.4161 -0.5882 0.9949
-3.0799 -2.3110 -1.9976 0.9828
-2.8619 -2.5769 -1.9979 0.9828
-2.3594 -3.0454 -1.9986 0.9828
-2.0787 -3.2444 -1.9989 0.9828
-1.1463 -3.6812 -2.0002 0.9828
-0.4742 -3.8279 -2.0010 0.9828
-0.1309 -3.8558 -2.0015 0.9828
0.2136 -3.8530 -2.0019 0.9828
0.5565 -3.8194 -2.0024 0.9828
1.2268 -3.6613 -2.0032 0.9828
1.8585 -3.3864 -2.0040 0.9827
2.4315 -3.0033 -2.0047 0.9827
3.4922 -1.6597 -2.0059 0.9827
3.6265 -1.3417 -2.0060 0.9827
3.8075 -0.6760 -2.0061 0.9827
3.8527 -0.3337 -2.0062 0.9827
3.8670 0.0112 -2.0062 0.9827
3.8505 0.3561 -2.0061 0.9827
3.8032 0.6981 -2.0060 0.9827
3.4818 1.6796 -2.0055 0.9827
3.3177 1.9833 -2.0052 0.9827
3.1272 2.2710 -2.0050 0.9827
2.9117 2.5405 -2.0047 0.9827
2.6731 2.7896 -2.0043 0.9827
0.8730 3.7589 -2.0019 0.9828
0.5341 3.8210 -2.0015 0.9828
-0.1532 3.8534 -2.0006 0.9828
-0.4962 3.8235 -2.0002 0.9828
-1.4899 3.5535 -1.9990 0.9828
-2.0968 3.2311 -1.9982 0.9828
-2.3762 3.0307 -1.9979 0.9828
-2.6366 2.8062 -1.9976 0.9828
-2.8760 2.5595 -1.9973 0.9828
-3.0925 2.2925 -1.9971 0.9828
-1.0320 0.5104 -0.5973 0.9948
-1.0556 0.4094 -0.5874 0.9949
-1.0637 0.3067 -0.5743 0.9950
-1.0875 0.2107 -0.5747 0.9950
-1.1063 0.0141 -0.5740 0.9950
-1.1052 -0.0848 -0.5750 0.9950
-1.0932 -0.1830 -0.5750 0.9950
-1.0593 -0.3801 -0.5838 0.9949
-0.9989 -0.5761 -0.5982 0.9948
-2.9409 -2.4861 -1.9978 0.9828
-2.4532 -2.9700 -1.9984 0.9828
-2.1789 -3.1776 -1.9988 0.9828
-1.8872 -3.3600 -1.9992 0.9828
-1.5803 -3.5156 -1.9996 0.9828
-1.2607 -3.6433 -2.0000 0.9828
-0.9309 -3.7420 -2.0005 0.9828
-0.2513 -3.8496 -2.0013 0.9828
0.0931 -3.8575 -2.0018 0.9828
0.7773 -3.7812 -2.0026 0.9828
2.3363 -3.0776 -2.0045 0.9827
3.4385 -1.7679 -2.0058 0.9827
3.6984 -1.1290 -2.0061 0.9827
3.8404 -0.4540 -2.0062 0.9827
3.8655 -0.1096 -2.0062 0.9827
3.5327 1.5701 -2.0056 0.9827
3.3782 1.8787 -2.0053 0.9827
3.1968 2.1723 -2.0051 0.9827
2.7591 2.7049 -2.0045 0.9827
2.5064 2.9397 -2.0041 0.9827
2.2338 3.1509 -2.0037 0.9827
1.9435 3.3370 -2.0033 0.9827
1.3191 3.6277 -2.0025 0.9828
0.6533 3.8027 -2.0017 0.9828
0.3114 3.8450 -2.0012 0.9828
-0.3765 3.8375 -2.0003 0.9828
-0.7172 3.7878 -1.9999 0.9828
-1.3782 3.5986 -1.9991 0.9828
-1.9949 3.2952 -1.9984 0.9828
-1.0790 0.2442 -0.5739 0.9950
-1.0989 0.1474 -0.5752 0.9950
-1.1065 -0.0502 -0.5746 0.9950
-1.0493 -0.4468 -0.5917 0.9949
-1.0160 -0.5444 -0.5980 0.9948
-3.0170 -2.3928 -1.9977 0.9828
-2.2770 -3.1078 -1.9987 0.9828
-1.9911 -3.2991 -1.9991 0.9828
-1.6892 -3.4643 -1.9995 0.9828
-0.3714 -3.8396 -2.0012 0.9828
0.6587 -3.8034 -2.0025 0.9828
0.9956 -3.7302 -2.0029 0.9828
1.6432 -3.4954 -2.0037 0.9827
1.9487 -3.3355 -2.0041 0.9827
2.7636 -2.7019 -2.0050 0.9827
3.2005 -2.1684 -2.0055 0.9827
3.3815 -1.8744 -2.0057 0.9827
3.5355 -1.5655 -2.0059 0.9827
3.7578 -0.9125 -2.0061 0.9827
3.8243 -0.5737 -2.0062 0.9827
3.8602 -0.2303 -2.0062 0.9827
3.8395 0.4592 -2.0061 0.9827
3.6964 1.1340 -2.0058 0.9827
3.5802 1.4590 -2.0056 0.9827
3.4354 1.7723 -2.0054 0.9827
3.2632 2.0714 -2.0052 0.9827
3.0650 2.3539 -2.0049 0.9827
2.5972 2.8601 -2.0042 0.9827
1.1062 3.6976 -2.0022 0.9828
0.7718 3.7807 -2.0018 0.9828
0.0878 3.8560 -2.0009 0.9828
-0.2565 3.8476 -2.0005 0.9828
-1.2652 3.6402 -1.9992 0.9828
-1.5845 3.5121 -1.9989 0.9828
-2.1825 3.1736 -1.9981 0.9828
-2.7108 2.7344 -1.9975 0.9828
-2.9435 2.4814 -1.9972 0.9828
-3.1527 2.2087 -1.9970 0.9828
-0.9997 0.5748 -0.5982 0.9948
-1.0419 0.4810 -0.5953 0.9948
-1.0595 0.3785 -0.5837 0.9949
-1.0690 0.2774 -0.5730 0.9950
-1.1052 0.0833 -0.5750 0.9950
-1.1063 -0.0156 -0.5740 0.9950
-1.0872 -0.2121 -0.5746 0.9950
-3.0901 -2.2973 -1.9976 0.9828
-2.6336 -2.8107 -1.9982 0.9828
-2.3728 -3.0349 -1.9986 0.9828
-2.0931 -3.2350 -1.9989 0.9828
-1.7965 -3.4095 -1.9993 0.9828
-1.4856 -3.5569 -1.9997 0.9828
-1.1626 -3.6760 -2.0002 0.9828
-0.4912 -3.8258 -2.0010 0.9828
-0.1480 -3.8552 -2.0015 0.9828
0.1965 -3.8539 -2.0019 0.9828
0.5395 -3.8218 -2.0023 0.9828
0.8785 -3.7592 -2.0028 0.9828
1.2105 -3.6667 -2.0032 0.9828
1.5330 -3.5448 -2.0036 0.9827
2.1393 -3.2172 -2.0043 0.9827
2.9160 -2.5372 -2.0052 0.9827
3.3211 -1.9791 -2.0057 0.9827
3.7274 -1.0295 -2.0061 0.9827
3.8045 -0.6929 -2.0061 0.9827
3.8671 -0.0059 -2.0062 0.9827
3.8521 0.3390 -2.0061 0.9827
3.8063 0.6812 -2.0060 0.9827
3.7301 1.0179 -2.0059 0.9827
3.6242 1.3465 -2.0057 0.9827
3.3265 1.9685 -2.0053 0.9827
3.1373 2.2571 -2.0050 0.9827
2.6854 2.7777 -2.0044 0.9827
1.8532 3.3877 -2.0032 0.9827
1.5433 3.5387 -2.0028 0.9828
0.5511 3.8186 -2.0015 0.9828
0.2082 3.8517 -2.0011 0.9828
-0.8184 3.7669 -1.9998 0.9828
-1.1509 3.6782 -1.9994 0.9828
-1.7854 3.4138 -1.9986 0.9828
-2.0824 3.2404 -1.9982 0.9828
-2.3627 3.0412 -1.9979 0.9828
-2.8647 2.5723 -1.9973 0.9828
-3.0823 2.3062 -1.9971 0.9828
-1.0864 0.2155 -0.5746 0.9950
-1.1054 -0.0799 -0.5750 0.9950
-1.0940 -0.1782 -0.5750 0.9950
-1.0701 -0.2741 -0.5731 0.9950
-1.0014 -0.5717 -0.5982 0.9948
-2.4664 -2.9591 -1.9984 0.9828
-1.2768 -3.6376 -2.0000 0.9828
-0.9475 -3.7378 -2.0004 0.9828
-0.6105 -3.8083 -2.0009 0.9828
-0.2684 -3.8484 -2.0013 0.9828
0.4198 -3.8365 -2.0022 0.9828
0.7605 -3.7846 -2.0026 0.9828
1.0953 -3.7024 -2.0030 0.9828
1.7364 -3.4503 -2.0038 0.9827
2.3226 -3.0879 -2.0045 0.9827
2.8352 -2.6269 -2.0051 0.9827
3.2576 -2.0819 -2.0056 0.9827
3.4306 -1.7832 -2.0058 0.9827
3.7809 -0.8115 -2.0061 0.9827
3.8383 -0.4710 -2.0062 0.9827
3.8650 -0.1268 -2.0062 0.9827
3.8258 0.5619 -2.0060 0.9827
3.6646 1.2326 -2.0058 0.9827
2.7711 2.6926 -2.0045 0.9827
1.0066 3.7257 -2.0021 0.9828
0.3285 3.8436 -2.0012 0.9828
-0.0156 3.8567 -2.0008 0.9828
-0.3595 3.8391 -2.0004 0.9828
-0.7004 3.7910 -1.9999 0.9828
-1.0355 3.7126 -1.9995 0.9828
-1.3622 3.6047 -1.9991 0.9828
-1.6780 3.4682 -1.9987 0.9828
-1.9803 3.3041 -1.9984 0.9828
-2.2667 3.1137 -1.9980 0.9828
-3.0089 2.4015 -1.9972 0.9828
-3.2107 2.1233 -1.9969 0.9828
-1.0777 0.2490 -0.5738 0.9950
-1.0983 0.1522 -0.5752 0.9950
-1.1064 0.0536 -0.5747 0.9950
-1.0994 -0.1440 -0.5752 0.9950
-1.0626 -0.3390 -0.5786 0.9950
-1.0503 -0.4417 -0.5911 0.9949
-2.8037 -2.6404 -1.9980 0.9828
-2.0057 -3.2902 -1.9990 0.9828
-1.3898 -3.5957 -1.9999 0.9828
-0.3885 -3.8378 -2.0012 0.9828
0.9790 -3.7346 -2.0029 0.9828
2.4981 -2.9483 -2.0047 0.9827
2.9831 -2.4582 -2.0053 0.9827
3.5285 -1.5812 -2.0059 0.9827
3.7537 -0.9292 -2.0061 0.9827
3.8592 -0.2475 -2.0062 0.9827
3.8416 0.4421 -2.0061 0.9827
3.7866 0.7830 -2.0060 0.9827
3.7014 1.1175 -2.0058 0.9827
3.4433 1.7571 -2.0054 0.9827
3.2724 2.0569 -2.0052 0.9827
3.0755 2.3403 -2.0049 0.9827
2.8540 2.6049 -2.0046 0.9827
2.6099 2.8485 -2.0042 0.9827
2.3450 3.0694 -2.0039 0.9827
1.1226 3.6927 -2.0023 0.9828
0.1049 3.8556 -2.0010 0.9828
-0.2394 3.8488 -2.0005 0.9828
-0.9190 3.7434 -1.9997 0.9828
-1.5689 3.5191 -1.9989 0.9828
-1.8762 3.3646 -1.9985 0.9828
-2.1684 3.1832 -1.9981 0.9828
-2.9325 2.4945 -1.9972 0.9828
-3.1429 2.2227 -1.9970 0.9828
-1.0407 0.4860 -0.5959 0.9948
-1.0675 0.2820 -0.5728 0.9950
-1.1062 -0.0107 -0.5739 0.9950
-1.0883 -0.2073 -0.5747 0.9950
-1.0561 -0.4059 -0.5870 0.9949
-0.9857 -0.5983 -0.5982 0.9948
-2.8847 -2.5513 -1.9979 0.9828
-2.1074 -3.2257 -1.9989 0.9828
-1.8116 -3.4015 -1.9993 0.9828
-0.5082 -3.8235 -2.0010 0.9828
-0.1651 -3.8544 -2.0014 0.9828
0.8618 -3.7631 -2.0027 0.9828
1.5173 -3.5515 -2.0035 0.9827
2.6653 -2.7986 -2.0049 0.9827
2.9047 -2.5501 -2.0052 0.9827
3.1209 -2.2811 -2.0054 0.9827
3.3123 -1.9939 -2.0057 0.9827
3.6144 -1.3738 -2.0060 0.9827
3.7228 -1.0460 -2.0061 0.9827
3.8013 -0.7098 -2.0061 0.9827
3.8093 0.6643 -2.0060 0.9827
3.6301 1.3304 -2.0057 0.9827
3.4966 1.6487 -2.0055 0.9827
3.1473 2.2432 -2.0050 0.9827
2.6978 2.7658 -2.0044 0.9827
2.4399 2.9949 -2.0040 0.9827
2.1627 3.2000 -2.0036 0.9827
1.8683 3.3795 -2.0032 0.9827
1.2376 3.6561 -2.0024 0.9828
0.9063 3.7511 -2.0020 0.9828
0.5680 3.8162 -2.0016 0.9828
0.2253 3.8508 -2.0011 0.9828
-0.1190 3.8547 -2.0007 0.9828
-1.1345 3.6833 -1.9994 0.9828
-1.4583 3.5667 -1.9990 0.9828
-2.0680 3.2496 -1.9983 0.9828
-2.3492 3.0517 -1.9979 0.9828
-2.8532 2.5850 -1.9973 0.9828
-3.0720 2.3199 -1.9971 0.9828
-1.0278 0.5197 -0.5975 0.9948
-1.0852 0.2203 -0.5745 0.9950
-1.1065 0.0239 -0.5742 0.9950
-1.1057 -0.0750 -0.5749 0.9950
-1.0949 -0.1733 -0.5751 0.9950
-1.0716 -0.2694 -0.5732 0.9950
-1.0603 -0.3699 -0.5826 0.9950
-1.0439 -0.4724 -0.5944 0.9948
-1.0039 -0.5672 -0.5982 0.9948
-2.9628 -2.4598 -1.9977 0.9828
-2.4794 -2.9481 -1.9984 0.9828
-1.9169 -3.3430 -1.9992 0.9828
-0.9641 -3.7335 -2.0004 0.9828
0.4028 -3.8383 -2.0022 0.9828
0.7437 -3.7879 -2.0026 0.9828
1.0788 -3.7072 -2.0030 0.9828
1.4054 -3.5969 -2.0034 0.9827
1.7210 -3.4579 -2.0038 0.9827
2.0230 -3.2912 -2.0042 0.9827
2.5764 -2.8804 -2.0048 0.9827
2.8234 -2.6395 -2.0051 0.9827
3.4226 -1.7984 -2.0058 0.9827
3.7642 0.8842 -2.0059 0.9827
3.6700 1.2163 -2.0058 0.9827
3.3948 1.8487 -2.0054 0.9827
2.7830 2.6803 -2.0045 0.9827
2.5325 2.9174 -2.0041 0.9827
2.2617 3.1310 -2.0038 0.9827
1.3513 3.6159 -2.0026 0.9828
1.0232 3.7212 -2.0021 0.9828
0.3456 3.8421 -2.0013 0.9828
-1.3462 3.6108 -1.9991 0.9828
-2.5221 2.9099 -1.9977 0.9828
-2.7712 2.6730 -1.9974 0.9828
-3.2013 2.1376 -1.9969 0.9828
-1.0120 0.5521 -0.5981 0.9948
-1.0975 0.1571 -0.5752 0.9950
-1.1063 0.0585 -0.5747 0.9950
-1.1000 -0.1391 -0.5752 0.9950
-1.0629 -0.3339 -0.5780 0.9950
-1.0205 -0.5352 -0.5978 0.9948
-2.8154 -2.6279 -1.9979 0.9828
-2.0203 -3.2812 -1.9990 0.9828
-0.7459 -3.7837 -2.0007 0.9828
-0.4055 -3.8360 -2.0011 0.9828
-0.0618 -3.8577 -2.0016 0.9828
0.6249 -3.8090 -2.0024 0.9828
1.9190 -3.3526 -2.0040 0.9827
2.2108 -3.1686 -2.0044 0.9827
2.7395 -2.7263 -2.0050 0.9827
2.9721 -2.4714 -2.0053 0.9827
3.1811 -2.1967 -2.0055 0.9827
3.5214 -1.5968 -2.0059 0.9827
3.7495 -0.9458 -2.0061 0.9827
3.8190 -0.6077 -2.0062 0.9827
3.8580 -0.2646 -2.0062 0.9827
3.8662 0.0806 -2.0061 0.9827
3.8435 0.4251 -2.0061 0.9827
3.7063 1.1011 -2.0058 0.9827
3.5930 1.4272 -2.0057 0.9827
3.4511 1.7418 -2.0054 0.9827
2.6225 2.8370 -2.0043 0.9827
2.0760 3.2566 -2.0035 0.9827
1.4637 3.5722 -2.0027 0.9828
1.1390 3.6877 -2.0023 0.9828
0.1220 3.8552 -2.0010 0.9828
-0.9024 3.7475 -1.9997 0.9828
-2.4301 2.9875 -1.9978 0.9828
-2.6865 2.7584 -1.9975 0.9828
-1.0916 0.1912 -0.5749 0.9950
-1.1037 -0.1046 -0.5752 0.9950
-1.0893 -0.2025 -0.5748 0.9950
-1.0568 -0.4008 -0.5864 0.9949
-1.0355 -0.5025 -0.5971 0.9948
-0.9884 -0.5939 -0.5982 0.9948
-3.1104 -2.2697 -1.9975 0.9828
-2.8960 -2.5385 -1.9978 0.9828
-2.3997 -3.0137 -1.9985 0.9828
-1.1952 -3.6655 -2.0001 0.9828
-0.8637 -3.7583 -2.0005 0.9828
0.1622 -3.8554 -2.0019 0.9828
0.5056 -3.8264 -2.0023 0.9828
1.1779 -3.6772 -2.0031 0.9828
1.8132 -3.4107 -2.0039 0.9827
2.1106 -3.2360 -2.0043 0.9827
2.3912 -3.0353 -2.0046 0.9827
2.6528 -2.8104 -2.0049 0.9827
3.4697 -1.7060 -2.0058 0.9827
3.6083 -1.3899 -2.0060 0.9827
3.7981 -0.7267 -2.0061 0.9827
3.8549 0.3048 -2.0061 0.9827
3.8122 0.6474 -2.0060 0.9827
3.7390 0.9847 -2.0059 0.9827
3.5039 1.6331 -2.0055 0.9827
3.3439 1.9389 -2.0053 0.9827
2.7101 2.7538 -2.0044 0.9827
1.2538 3.6506 -2.0024 0.9828
0.5850 3.8136 -2.0016 0.9828
0.2424 3.8498 -2.0011 0.9828
-0.4453 3.8299 -2.0003 0.9828
-0.7849 3.7741 -1.9998 0.9828
-1.4424 3.5732 -1.9990 0.9828
-1.7551 3.4296 -1.9986 0.9828
-2.3357 3.0621 -1.9979 0.9828
-2.5991 2.8412 -1.9976 0.9828
-2.8417 2.5977 -1.9974 0.9828
-0.9755 0.6142 -0.5980 0.9948
-1.0257 0.5244 -0.5976 0.9948
-1.0634 0.3219 -0.5764 0.9950
-1.0957 -0.1685 -0.5751 0.9950
-1.0730 -0.2647 -0.5733 0.9950
-1.0608 -0.3648 -0.5819 0.9950
-1.0450 -0.4673 -0.5939 0.9949
-1.0064 -0.5627 -0.5981 0.9948
-3.1796 -2.1713 -1.9974 0.9828
-2.7440 -2.7025 -1.9980 0.9828
-2.2210 -3.1482 -1.9988 0.9828
-0.6442 -3.8026 -2.0008 0.9828
0.0417 -3.8583 -2.0017 0.9828
0.3857 -3.8400 -2.0021 0.9828
0.7269 -3.7911 -2.0026 0.9828
1.3895 -3.6031 -2.0034 0.9827
1.7056 -3.4655 -2.0038 0.9827
2.2951 -3.1084 -2.0045 0.9827
2.5636 -2.8918 -2.0048 0.9827
2.8117 -2.6520 -2.0051 0.9827
3.0374 -2.3909 -2.0054 0.9827
3.2389 -2.1107 -2.0056 0.9827
3.4146 -1.8136 -2.0058 0.9827
3.6830 -1.1782 -2.0060 0.9827
3.7736 -0.8450 -2.0061 0.9827
3.8340 -0.5051 -2.0062 0.9827
3.8637 -0.1611 -2.0062 0.9827
3.8626 0.1842 -2.0061 0.9827
3.7681 0.8675 -2.0059 0.9827
3.6754 1.2000 -2.0058 0.9827
3.5534 1.5229 -2.0056 0.9827
3.0223 2.4084 -2.0048 0.9827
2.5454 2.9061 -2.0042 0.9827
2.2756 3.1210 -2.0038 0.9827
1.3674 3.6099 -2.0026 0.9828
0.0186 3.8568 -2.0008 0.9828
-0.3254 3.8423 -2.0004 0.9828
-1.6471 3.4830 -1.9988 0.9828
-2.2390 3.1338 -1.9981 0.9828
-2.5092 2.9211 -1.9977 0.9828
-2.7593 2.6853 -1.9974 0.9828
-2.9875 2.4282 -1.9972 0.9828
-1.0096 0.5566 -0.5981 0.9948
-1.0613 0.3579 -0.5811 0.9950
-1.0749 0.2584 -0.5735 0.9950
-1.0968 0.1620 -0.5752 0.9950
-1.1062 0.0634 -0.5748 0.9950
-1.0631 -0.3288 -0.5773 0.9950
-1.0521 -0.4316 -0.5899 0.9949
-0.9716 -0.6199 -0.5979 0.9948
-3.0485 -2.3524 -1.9976 0.9828
-2.5829 -2.8575 -1.9983 0.9828
-2.3181 -3.0771 -1.9986 0.9828
-1.0966 -3.6965 -2.0002 0.9828
-0.7627 -3.7803 -2.0007 0.9828
-0.4226 -3.8341 -2.0011 0.9828
-0.0789 -3.8574 -2.0016 0.9828
0.2656 -3.8499 -2.0020 0.9828
0.9458 -3.7431 -2.0028 0.9828
1.9041 -3.3611 -2.0040 0.9827
2.9611 -2.4846 -2.0053 0.9827
3.1713 -2.2108 -2.0055 0.9827
3.5143 -1.6124 -2.0059 0.9827
3.6443 -1.2926 -2.0060 0.9827
3.7453 -0.9625 -2.0061 0.9827
3.8568 -0.2817 -2.0062 0.9827
3.8665 0.0634 -2.0061 0.9827
3.8453 0.4080 -2.0061 0.9827
3.0962 2.3129 -2.0049 0.9827
2.8771 2.5794 -2.0046 0.9827
2.6351 2.8253 -2.0043 0.9827
2.0904 3.2474 -2.0035 0.9827
1.4796 3.5657 -2.0027 0.9828
1.1554 3.6827 -2.0023 0.9828
0.8222 3.7702 -2.0019 0.9828
0.4825 3.8277 -2.0014 0.9828
-0.2052 3.8508 -2.0006 0.9828
-0.5477 3.8164 -2.0001 0.9828
-0.8858 3.7515 -1.9997 0.9828
-1.2166 3.6568 -1.9993 0.9828
-1.5376 3.5330 -1.9989 0.9828
-1.8463 3.3811 -1.9985 0.9828
-2.1401 3.2024 -1.9982 0.9828
-2.4168 2.9983 -1.9978 0.9828
-2.6742 2.7703 -1.9975 0.9828
-1.0381 0.4961 -0.5969 0.9948
-1.0644 0.2913 -0.5725 0.9950
1.2341 3.4415 -2.0024 0.9835
0.9221 3.5371 -2.0020 0.9835
-0.0473 3.6528 -2.0008 0.9835
-0.6952 3.5848 -2.0000 0.9835
-1.0120 3.5078 -1.9996 0.9835
-1.6185 3.2709 -1.9988 0.9835
-1.9035 3.1130 -1.9985 0.9835
-2.1732 2.9303 -1.9982 0.9835
-2.6586 2.4969 -1.9976 0.9835
-0.8856 0.5745 -0.5782 0.9952
-0.9669 0.4051 -0.5742 0.9952
-0.9797 0.3111 -0.5630 0.9953
-1.0029 0.2223 -0.5626 0.9953
-1.0210 0.1323 -0.5639 0.9953
-1.0276 0.0406 -0.5632 0.9953
-1.0196 -0.1427 -0.5639 0.9953
-1.0001 -0.2325 -0.5624 0.9953
-0.9788 -0.3219 -0.5644 0.9953
-0.9646 -0.4159 -0.5753 0.9952
-0.9285 -0.5029 -0.5784 0.9952
-2.6336 -2.5247 -1.9982 0.9835
-2.3983 -2.7500 -1.9985 0.9835
-1.5855 -3.2886 -1.9996 0.9835
-0.9764 -3.5194 -2.0004 0.9835
0.3163 -3.6416 -2.0020 0.9835
0.6399 -3.5996 -2.0024 0.9835
1.5710 -3.3037 -2.0036 0.9835
2.1337 -2.9730 -2.0043 0.9834
2.3907 -2.7712 -2.0046 0.9834
3.0402 -2.0402 -2.0053 0.9834
3.2104 -1.7610 -2.0055 0.9834
3.3549 -1.4678 -2.0057 0.9834
3.4727 -1.1627 -2.0058 0.9834
3.6343 0.4510 -2.0058 0.9834
3.5794 0.7733 -2.0057 0.9834
3.4959 1.0895 -2.0056 0.9834
3.2461 1.6930 -2.0052 0.9834
3.0818 1.9755 -2.0049 0.9834
2.8929 2.2422 -2.0047 0.9834
2.6810 2.4909 -2.0044 0.9834
2.1951 2.9267 -2.0037 0.9835
1.6395 3.2689 -2.0030 0.9835
0.7151 3.5842 -2.0018 0.9835
0.3925 3.6329 -2.0013 0.9835
-0.2591 3.6434 -2.0005 0.9835
-1.5157 3.3201 -1.9990 0.9835
-2.0807 2.9970 -1.9983 0.9835
-2.3394 2.7990 -1.9980 0.9835
-2.5794 2.5788 -1.9977 0.9835
-2.7987 2.3382 -1.9974 0.9835
-0.8663 0.6012 -0.5775 0.9952
-0.9766 0.3441 -0.5671 0.9953
-0.9940 0.2532 -0.5618 0.9953
-1.0265 0.0728 -0.5636 0.9953
-1.0235 -0.1108 -0.5639 0.9953
-0.8979 -0.5560 -0.5784 0.9952
-2.4829 -2.6735 -1.9984 0.9835
-1.6874 -3.2372 -1.9994 0.9835
-0.7706 -3.5706 -2.0006 0.9835
0.2023 -3.6495 -2.0019 0.9835
0.8479 -3.5569 -2.0027 0.9835
1.4669 -3.3509 -2.0035 0.9835
2.7724 -2.3906 -2.0050 0.9834
2.9749 -2.1341 -2.0052 0.9834
3.3073 -1.5719 -2.0056 0.9834
3.5344 -0.9593 -2.0058 0.9834
3.6060 -0.6402 -2.0059 0.9834
3.6487 -0.3161 -2.0059 0.9834
3.6624 0.0106 -2.0059 0.9834
3.6467 0.3373 -2.0058 0.9834
3.6019 0.6611 -2.0057 0.9834
2.5317 2.6421 -2.0042 0.9834
2.0213 3.0488 -2.0035 0.9835
1.7410 3.2163 -2.0031 0.9835
1.1413 3.4731 -2.0023 0.9835
0.5059 3.6192 -2.0015 0.9835
0.1810 3.6491 -2.0011 0.9835
-0.1452 3.6499 -2.0007 0.9835
-1.1056 3.4792 -1.9995 0.9835
-2.4976 2.6583 -1.9978 0.9835
-2.7244 2.4246 -1.9975 0.9835
-0.9012 0.5508 -0.5785 0.9952
-0.9455 0.4676 -0.5777 0.9952
-0.9720 0.3770 -0.5710 0.9953
-0.9837 0.2836 -0.5607 0.9953
-0.9922 -0.2589 -0.5616 0.9953
-0.9559 -0.4428 -0.5770 0.9952
-0.9150 -0.5277 -0.5785 0.9952
-0.8625 -0.6060 -0.5774 0.9952
-2.3238 -2.8134 -1.9986 0.9835
-1.1941 -3.4510 -2.0001 0.9835
-0.8818 -3.5445 -2.0005 0.9835
-0.5622 -3.6098 -2.0009 0.9835
1.0529 -3.5021 -2.0030 0.9835
1.3614 -3.3949 -2.0033 0.9835
1.6591 -3.2605 -2.0037 0.9835
1.9436 -3.1001 -2.0040 0.9835
2.2127 -2.9148 -2.0044 0.9834
3.0939 -1.9580 -2.0054 0.9834
3.2565 -1.6744 -2.0056 0.9834
3.5026 -1.0692 -2.0058 0.9834
3.5842 -0.7526 -2.0059 0.9834
3.6209 0.5483 -2.0058 0.9834
3.5574 0.8690 -2.0057 0.9834
3.3458 1.4870 -2.0053 0.9834
3.0276 2.0573 -2.0049 0.9834
2.6132 2.5618 -2.0043 0.9834
2.3739 2.7842 -2.0040 0.9835
2.1157 2.9843 -2.0036 0.9835
1.8407 3.1606 -2.0032 0.9835
1.5512 3.3115 -2.0029 0.9835
0.9378 3.5330 -2.0021 0.9835
0.6188 3.6019 -2.0016 0.9835
-0.0310 3.6530 -2.0008 0.9835
-0.6793 3.5879 -2.0000 0.9835
-0.9964 3.5123 -1.9996 0.9835
-1.8897 3.1214 -1.9985 0.9835
-2.4135 2.7352 -1.9979 0.9835
-0.9659 0.4098 -0.5747 0.9952
-1.0017 0.2267 -0.5625 0.9953
-1.0204 0.1368 -0.5639 0.9953
-1.0275 0.0452 -0.5633 0.9953
-1.0202 -0.1382 -0.5639 0.9953
-1.0013 -0.2281 -0.5625 0.9953
-0.9792 -0.3172 -0.5638 0.9953
-0.9656 -0.4112 -0.5748 0.9952
-0.9307 -0.4987 -0.5783 0.9952
-0.8821 -0.5795 -0.5781 0.9952
-2.8579 -2.2667 -1.9979 0.9835
-2.1569 -2.9438 -1.9988 0.9835
-1.8861 -3.1251 -1.9992 0.9835
-1.6001 -3.2815 -1.9996 0.9835
-1.3013 -3.4118 -2.0000 0.9835
-0.9920 -3.5150 -2.0004 0.9835
-0.6747 -3.5902 -2.0008 0.9835
-0.3518 -3.6368 -2.0012 0.9835
0.6239 -3.6024 -2.0024 0.9835
1.2546 -3.4356 -2.0032 0.9835
1.5563 -3.3106 -2.0036 0.9835
2.3784 -2.7818 -2.0046 0.9834
2.8356 -2.3156 -2.0051 0.9834
3.3484 -1.4827 -2.0057 0.9834
3.4675 -1.1782 -2.0058 0.9834
3.6219 -0.5434 -2.0059 0.9834
3.6559 -0.2181 -2.0059 0.9834
3.6607 0.1088 -2.0059 0.9834
3.5008 1.0739 -2.0056 0.9834
3.3907 1.3818 -2.0054 0.9834
3.2536 1.6785 -2.0052 0.9834
2.9029 2.2294 -2.0047 0.9834
1.6540 3.2617 -2.0030 0.9835
1.0478 3.5023 -2.0022 0.9835
0.4087 3.6312 -2.0014 0.9835
-1.1984 3.4481 -1.9993 0.9835
-2.3270 2.8094 -1.9980 0.9835
-2.5679 2.5903 -1.9977 0.9835
-0.9564 0.4415 -0.5770 0.9952
-1.0152 0.1686 -0.5636 0.9953
-1.0263 0.0773 -0.5637 0.9953
-1.0240 -0.1062 -0.5639 0.9953
-1.0092 -0.1969 -0.5632 0.9953
-0.9449 -0.4689 -0.5777 0.9952
-2.7218 -2.4289 -1.9980 0.9835
-2.4947 -2.6625 -1.9984 0.9835
-1.1013 -3.4820 -2.0002 0.9835
-0.7865 -3.5671 -2.0006 0.9835
0.1861 -3.6503 -2.0019 0.9835
0.5110 -3.6199 -2.0023 0.9835
0.8320 -3.5606 -2.0027 0.9835
1.1465 -3.4728 -2.0031 0.9835
1.4520 -3.3574 -2.0034 0.9835
2.0261 -3.0470 -2.0041 0.9835
2.2902 -2.8546 -2.0045 0.9834
2.5360 -2.6393 -2.0047 0.9834
3.4289 -1.2859 -2.0057 0.9834
3.5301 -0.9750 -2.0058 0.9834
3.6048 0.6451 -2.0057 0.9834
3.4324 1.2752 -2.0055 0.9834
3.3046 1.5761 -2.0053 0.9834
2.9713 2.1377 -2.0048 0.9834
2.7684 2.3938 -2.0045 0.9834
2.5434 2.6308 -2.0042 0.9834
2.2983 2.8467 -2.0039 0.9835
1.7552 3.2086 -2.0031 0.9835
1.4618 3.3517 -2.0027 0.9835
1.1568 3.4681 -2.0023 0.9835
0.5220 3.6169 -2.0015 0.9835
-0.4539 3.6238 -2.0003 0.9835
-0.7752 3.5681 -1.9999 0.9835
-1.0902 3.4841 -1.9995 0.9835
-1.3963 3.3723 -1.9991 0.9835
-2.7137 2.4367 -1.9975 0.9835
-2.9198 2.1847 -1.9973 0.9835
-0.9436 0.4719 -0.5778 0.9952
-0.9712 0.3817 -0.5715 0.9953
-1.0085 0.2000 -0.5631 0.9953
-1.0237 0.1094 -0.5639 0.9953
-1.0265 -0.0742 -0.5637 0.9953
-0.9935 -0.2545 -0.5617 0.9953
-0.9764 -0.3455 -0.5673 0.9953
-0.9173 -0.5237 -0.5785 0.9952
-0.8654 -0.6023 -0.5775 0.9952
-2.7963 -2.3426 -1.9979 0.9835
-2.5766 -2.5831 -1.9982 0.9835
-2.3363 -2.8030 -1.9986 0.9835
-1.8017 -3.1747 -1.9993 0.9835
-1.5117 -3.3234 -1.9997 0.9835
-1.2094 -3.4456 -2.0001 0.9835
-0.8975 -3.5405 -2.0005 0.9835
0.0719 -3.6540 -2.0017 0.9835
0.7203 -3.5846 -2.0025 0.9835
1.0374 -3.5067 -2.0029 0.9835
1.3463 -3.4009 -2.0033 0.9835
1.6446 -3.2678 -2.0037 0.9835
2.1997 -2.9246 -2.0043 0.9834
2.6852 -2.4879 -2.0049 0.9834
2.8967 -2.2388 -2.0052 0.9834
3.0852 -1.9717 -2.0054 0.9834
3.5808 -0.7685 -2.0059 0.9834
3.6351 -0.4461 -2.0059 0.9834
3.6604 -0.1200 -2.0059 0.9834
3.6565 0.2069 -2.0059 0.9834
3.5612 0.8532 -2.0057 0.9834
3.3524 1.4721 -2.0053 0.9834
3.0368 2.0439 -2.0049 0.9834
2.6245 2.5502 -2.0043 0.9834
2.3862 2.7737 -2.0040 0.9835
2.1290 2.9749 -2.0036 0.9835
1.8548 3.1524 -2.0033 0.9835
1.2646 3.4305 -2.0025 0.9835
0.6348 3.5991 -2.0017 0.9835
-0.6634 3.5909 -2.0000 0.9835
-1.2903 3.4145 -1.9992 0.9835
-2.4013 2.7459 -1.9979 0.9835
-2.8503 2.2749 -1.9974 0.9835
-0.9292 0.5016 -0.5783 0.9952
-0.9649 0.4144 -0.5752 0.9952
-0.9790 0.3205 -0.5642 0.9953
-1.0005 0.2311 -0.5624 0.9953
-1.0276 -0.0420 -0.5633 0.9953
-1.0208 -0.1337 -0.5639 0.9953
-0.9796 -0.3125 -0.5632 0.9953
-0.8848 -0.5756 -0.5782 0.9952
-1.3164 -3.4059 -1.9999 0.9835
-0.6906 -3.5871 -2.0007 0.9835
0.6079 -3.6051 -2.0024 0.9835
1.2393 -3.4411 -2.0032 0.9835
1.5416 -3.3174 -2.0036 0.9835
1.8316 -3.1672 -2.0039 0.9835
2.3660 -2.7923 -2.0045 0.9834
2.6060 -2.5705 -2.0048 0.9834
2.8252 -2.3281 -2.0051 0.9834
3.0220 -2.0671 -2.0053 0.9834
3.1946 -1.7895 -2.0055 0.9834
3.3417 -1.4975 -2.0056 0.9834
3.4622 -1.1935 -2.0058 0.9834
3.5550 -0.8800 -2.0058 0.9834
3.6194 -0.5594 -2.0059 0.9834
3.6382 0.4187 -2.0058 0.9834
3.5862 0.7415 -2.0057 0.9834
3.5055 1.0584 -2.0056 0.9834
3.3969 1.3667 -2.0054 0.9834
3.2611 1.6641 -2.0052 0.9834
2.9128 2.2165 -2.0047 0.9834
2.7031 2.4671 -2.0044 0.9834
2.4719 2.6979 -2.0041 0.9835
2.2210 2.9071 -2.0037 0.9835
1.6685 3.2543 -2.0030 0.9835
1.0633 3.4976 -2.0022 0.9835
0.7470 3.5778 -2.0018 0.9835
-0.8705 3.5459 -1.9998 0.9835
-1.1831 3.4534 -1.9994 0.9835
-1.4861 3.3335 -1.9990 0.9835
-1.7772 3.1871 -1.9986 0.9835
-2.7779 2.3630 -1.9975 0.9835
-0.9134 0.5306 -0.5785 0.9952
-0.9547 0.4459 -0.5771 0.9952
-0.9754 0.3534 -0.5682 0.9953
-1.0260 0.0819 -0.5637 0.9953
-1.0102 -0.1925 -0.5633 0.9953
-0.9468 -0.4646 -0.5776 0.9952
-0.9029 -0.5480 -0.5785 0.9952
-0.8477 -0.6244 -0.5766 0.9952
-2.2604 -2.8648 -1.9987 0.9835
-1.9962 -3.0555 -1.9990 0.9835
-0.1564 -3.6509 -2.0014 0.9835
0.1699 -3.6510 -2.0018 0.9835
0.8162 -3.5642 -2.0027 0.9835
1.1311 -3.4779 -2.0031 0.9835
1.7317 -3.2228 -2.0038 0.9835
2.0126 -3.0560 -2.0041 0.9835
2.2775 -2.8647 -2.0044 0.9834
2.5243 -2.6506 -2.0047 0.9834
2.9558 -2.1604 -2.0052 0.9834
3.1370 -1.8883 -2.0054 0.9834
3.2932 -1.6011 -2.0056 0.9834
3.4231 -1.3011 -2.0057 0.9834
3.6001 -0.6723 -2.0059 0.9834
3.6623 -0.0219 -2.0059 0.9834
3.6496 0.3049 -2.0058 0.9834
3.6077 0.6291 -2.0058 0.9834
3.4380 1.2600 -2.0055 0.9834
3.3116 1.5614 -2.0053 0.9834
3.1588 1.8504 -2.0051 0.9834
2.5551 2.6195 -2.0042 0.9834
2.3109 2.8365 -2.0039 0.9835
2.0483 3.0308 -2.0035 0.9835
1.1722 3.4629 -2.0024 0.9835
0.2134 3.6474 -2.0011 0.9835
-0.1127 3.6512 -2.0007 0.9835
-0.7594 3.5716 -1.9999 0.9835
-1.0747 3.4889 -1.9995 0.9835
-1.3813 3.3785 -1.9991 0.9835
-1.6769 3.2413 -1.9988 0.9835
-2.2254 2.8908 -1.9981 0.9835
-2.7028 2.4487 -1.9975 0.9835
-0.9416 0.4761 -0.5779 0.9952
-0.9808 0.2922 -0.5605 0.9953
-1.0074 0.2045 -0.5630 0.9953
-0.9949 -0.2502 -0.5619 0.9953
-2.5880 -2.5716 -1.9982 0.9835
-2.0906 -2.9915 -1.9989 0.9835
-1.8158 -3.1666 -1.9993 0.9835
-1.5264 -3.3166 -1.9997 0.9835
-0.2704 -3.6439 -2.0013 0.9835
0.7044 -3.5877 -2.0025 0.9835
1.3312 -3.4068 -2.0033 0.9835
1.6300 -3.2751 -2.0037 0.9835
2.1867 -2.9343 -2.0043 0.9834
2.4401 -2.7280 -2.0046 0.9834
2.6741 -2.4998 -2.0049 0.9834
2.8867 -2.2516 -2.0051 0.9834
3.5773 -0.7844 -2.0059 0.9834
3.6599 -0.1363 -2.0059 0.9834
3.6574 0.1907 -2.0059 0.9834
3.5650 0.8374 -2.0057 0.9834
3.4758 1.1519 -2.0055 0.9834
3.2152 1.7508 -2.0051 0.9834
3.0458 2.0304 -2.0049 0.9834
2.8522 2.2937 -2.0046 0.9834
2.1422 2.9655 -2.0036 0.9835
1.8688 3.1441 -2.0033 0.9835
1.2799 3.4248 -2.0025 0.9835
0.9691 3.5246 -2.0021 0.9835
0.6507 3.5963 -2.0017 0.9835
-0.9652 3.5211 -1.9996 0.9835
-1.2752 3.4203 -1.9993 0.9835
-1.5749 3.2923 -1.9989 0.9835
-1.8619 3.1382 -1.9985 0.9835
-2.1341 2.9591 -1.9982 0.9835
-0.8775 0.5860 -0.5779 0.9952
-0.9639 0.4191 -0.5757 0.9952
-0.9785 0.3251 -0.5648 0.9953
-1.0214 -0.1291 -0.5639 0.9953
-1.0037 -0.2193 -0.5627 0.9953
-0.9675 -0.4019 -0.5738 0.9952
-0.8875 -0.5718 -0.5782 0.9952
-2.8779 -2.2412 -1.9978 0.9835
-2.1829 -2.9245 -1.9988 0.9835
-1.9137 -3.1081 -1.9991 0.9835
-1.3315 -3.4000 -1.9999 0.9835
-0.3841 -3.6334 -2.0011 0.9835
0.2677 -3.6454 -2.0020 0.9835
0.9115 -3.5412 -2.0028 0.9835
1.5268 -3.3242 -2.0035 0.9835
1.8175 -3.1753 -2.0039 0.9835
2.0938 -3.0011 -2.0042 0.9834
2.5945 -2.5820 -2.0048 0.9834
3.1866 -1.8036 -2.0055 0.9834
3.3350 -1.5123 -2.0056 0.9834
3.6400 0.4026 -2.0058 0.9834
3.5102 1.0428 -2.0056 0.9834
3.4029 1.3516 -2.0054 0.9834
2.9226 2.2035 -2.0047 0.9834
2.7140 2.4551 -2.0044 0.9834
2.4838 2.6869 -2.0041 0.9835
2.2339 2.8973 -2.0038 0.9835
1.6830 3.2469 -2.0030 0.9835
1.3864 3.3834 -2.0026 0.9835
0.7628 3.5745 -2.0018 0.9835
0.4409 3.6275 -2.0014 0.9835
-0.2106 3.6466 -2.0006 0.9835
-0.8548 3.5497 -1.9998 0.9835
-1.4713 3.3401 -1.9990 0.9835
-2.3020 2.8300 -1.9980 0.9835
-2.5448 2.6130 -1.9977 0.9835
-2.7674 2.3753 -1.9975 0.9835
-0.8576 0.6122 -0.5771 0.9952
-0.9748 0.3581 -0.5688 0.9953
-0.9898 0.2662 -0.5614 0.9953
-1.0134 0.1775 -0.5635 0.9953
-1.0257 0.0865 -0.5638 0.9953
-1.0248 -0.0972 -0.5638 0.9953
-1.0112 -0.1880 -0.5633 0.9953
-0.9732 -0.3691 -0.5701 0.9953
-0.9487 -0.4603 -0.5775 0.9952
-0.9054 -0.5440 -0.5785 0.9952
-0.8507 -0.6208 -0.5768 0.9952
-1.7303 -3.2143 -1.9994 0.9835
-1.1321 -3.4720 -2.0002 0.9835
-0.8181 -3.5599 -2.0006 0.9835
-0.4974 -3.6194 -2.0010 0.9835
-0.1726 -3.6501 -2.0014 0.9835
0.4789 -3.6242 -2.0022 0.9835
2.5125 -2.6617 -2.0047 0.9834
2.7402 -2.4273 -2.0050 0.9834
3.1286 -1.9023 -2.0054 0.9834
3.6442 -0.3647 -2.0059 0.9834
3.6509 0.2886 -2.0058 0.9834
3.6104 0.6131 -2.0058 0.9834
3.4436 1.2447 -2.0055 0.9834
3.3185 1.5467 -2.0053 0.9834
2.7896 2.3692 -2.0045 0.9834
2.5667 2.6082 -2.0042 0.9834
2.3235 2.8262 -2.0039 0.9835
2.0618 3.0217 -2.0035 0.9835
1.1876 3.4577 -2.0024 0.9835
0.8742 3.5491 -2.0020 0.9835
0.2296 3.6465 -2.0011 0.9835
-0.7435 3.5750 -1.9999 0.9835
-1.6625 3.2487 -1.9988 0.9835
-1.9453 3.0870 -1.9984 0.9835
-2.2125 2.9007 -1.9981 0.9835
-2.9004 2.2105 -1.9973 0.9835
-0.9396 0.4804 -0.5780 0.9952
-0.9696 0.3910 -0.5726 0.9952
-0.9806 0.2969 -0.5611 0.9953
-1.0227 0.1185 -0.5639 0.9953
-0.9962 -0.2458 -0.5620 0.9953
-0.9609 -0.4297 -0.5765 0.9952
-0.9219 -0.5154 -0.5785 0.9952
-2.8169 -2.3176 -1.9979 0.9835
-2.3610 -2.7821 -1.9985 0.9835
-2.1038 -2.9822 -1.9989 0.9835
-1.5411 -3.3098 -1.9996 0.9835
-0.9289 -3.5323 -2.0004 0.9835
-0.2866 -3.6427 -2.0013 0.9835
0.3654 -3.6371 -2.0021 0.9835
0.6885 -3.5908 -2.0025 0.9835
1.0062 -3.5157 -2.0029 0.9835
1.9021 -3.1256 -2.0040 0.9835
2.1737 -2.9440 -2.0043 0.9834
2.4279 -2.7388 -2.0046 0.9834
2.6629 -2.5117 -2.0049 0.9834
3.2339 -1.7176 -2.0055 0.9834
3.5738 -0.8003 -2.0059 0.9834
3.6310 -0.4783 -2.0059 0.9834
3.5686 0.8216 -2.0057 0.9834
3.4809 1.1365 -2.0055 0.9834
3.2229 1.7366 -2.0051 0.9834
2.8624 2.2810 -2.0046 0.9834
2.6471 2.5268 -2.0043 0.9834
2.4108 2.7524 -2.0040 0.9835
2.1553 2.9560 -2.0037 0.9835
1.5952 3.2907 -2.0029 0.9835
1.2951 3.4192 -2.0025 0.9835
0.9848 3.5203 -2.0021 0.9835
0.6667 3.5934 -2.0017 0.9835
-0.6315 3.5967 -2.0001 0.9835
-1.2600 3.4259 -1.9993 0.9835
-1.5603 3.2993 -1.9989 0.9835
-1.8480 3.1464 -1.9986 0.9835
-2.1209 2.9686 -1.9982 0.9835
-2.3769 2.7671 -1.9979 0.9835
-2.6139 2.5437 -1.9976 0.9835
-0.8748 0.5898 -0.5778 0.9952
-0.9249 0.5099 -0.5784 0.9952
-0.9629 0.4237 -0.5762 0.9952
-0.9781 0.3298 -0.5653 0.9953
-1.0184 0.1504 -0.5638 0.9953
-1.0272 0.0589 -0.5635 0.9953
-1.0048 -0.2148 -0.5628 0.9953
-0.9369 -0.4861 -0.5781 0.9952
-2.8878 -2.2283 -1.9978 0.9835
-2.6779 -2.4774 -1.9981 0.9835
-1.9275 -3.0996 -1.9991 0.9835
-1.6436 -3.2598 -1.9995 0.9835
-1.3466 -3.3940 -1.9999 0.9835
-0.7224 -3.5808 -2.0007 0.9835
0.5759 -3.6103 -2.0024 0.9835
1.5120 -3.3309 -2.0035 0.9835
2.3411 -2.8132 -2.0045 0.9834
2.5830 -2.5935 -2.0048 0.9834
2.8044 -2.3531 -2.0051 0.9834
3.0034 -2.0938 -2.0053 0.9834
3.6143 -0.5916 -2.0059 0.9834
3.6527 -0.2668 -2.0059 0.9834
3.6619 0.0600 -2.0059 0.9834
3.6418 0.3864 -2.0058 0.9834
3.5927 0.7097 -2.0057 0.9834
3.5148 1.0272 -2.0056 0.9834
3.4089 1.3365 -2.0054 0.9834
3.2758 1.6351 -2.0052 0.9834
3.1165 1.9205 -2.0050 0.9834
2.7249 2.4430 -2.0044 0.9834
2.4958 2.6759 -2.0041 0.9835
2.2468 2.8874 -2.0038 0.9835
1.4014 3.3773 -2.0027 0.9835
1.0944 3.4881 -2.0023 0.9835
0.4570 3.6255 -2.0014 0.9835
-0.5188 3.6149 -2.0002 0.9835
-1.1524 3.4639 -1.9994 0.9835
-1.7489 3.2028 -1.9987 0.9835
-2.2894 2.8402 -1.9980 0.9835
-2.7569 2.3876 -1.9975 0.9835
-0.8547 0.6159 -0.5770 0.9952
-0.9086 0.5386 -0.5785 0.9952
-0.9511 0.4545 -0.5774 0.9952
-0.9742 0.3628 -0.5693 0.9953
-1.0253 0.0910 -0.5638 0.9953
1.7328 3.0058 -2.0031 0.9841
1.1707 3.2647 -2.0024 0.9841
0.8747 3.3554 -2.0020 0.9841
0.5718 3.4194 -2.0016 0.9841
-0.3537 3.4467 -2.0004 0.9841
-1.2528 3.2283 -1.9993 0.9841
-1.5355 3.1032 -1.9990 0.9841
-1.8059 2.9533 -1.9986 0.9841
-2.3012 2.5847 -1.9980 0.9841
-0.8155 0.5290 -0.5612 0.9955
-0.8928 0.3741 -0.5589 0.9955
-0.9512 0.1232 -0.5537 0.9956
-0.9061 -0.2980 -0.5507 0.9956
-0.8550 -0.4630 -0.5614 0.9955
-0.8098 -0.5371 -0.5610 0.9955
-0.7688 -0.6153 -0.5685 0.9955
-2.0339 -2.8019 -1.9990 0.9841
-1.7761 -2.9727 -1.9993 0.9841
-1.5042 -3.1198 -1.9997 0.9841
-1.2201 -3.2422 -2.0000 0.9841
-0.9263 -3.3387 -2.0004 0.9841
-0.6249 -3.4087 -2.0008 0.9841
-0.3184 -3.4515 -2.0012 0.9841
0.9094 -3.3475 -2.0028 0.9841
1.2046 -3.2537 -2.0031 0.9841
1.7641 -2.9889 -2.0038 0.9841
2.0240 -2.8201 -2.0041 0.9841
2.4935 -2.4163 -2.0047 0.9841
2.6994 -2.1845 -2.0049 0.9841
2.8838 -1.9352 -2.0051 0.9841
2.0352 -0.1124 -1.1768 0.9906
2.0317 0.0694 -1.1737 0.9907
2.0345 0.2525 -1.1836 0.9906
1.9895 0.4298 -1.1751 0.9906
3.0791 1.6058 -2.0050 0.9841
2.9233 1.8739 -2.0048 0.9841
2.5432 2.3629 -2.0042 0.9841
2.0822 2.7762 -2.0036 0.9841
1.5553 3.1009 -2.0029 0.9841
1.2722 3.2267 -2.0025 0.9841
0.6784 3.4001 -2.0017 0.9841
0.3724 3.4464 -2.0013 0.9841
0.0635 3.4652 -2.0009 0.9841
-0.5530 3.4200 -2.0002 0.9841
-1.1514 3.2661 -1.9994 0.9841
-1.9740 2.8433 -1.9984 0.9841
-2.6553 2.2183 -1.9976 0.9841
-0.8009 0.5558 -0.5628 0.9955
-0.8453 0.4810 -0.5615 0.9955
-0.9037 0.3184 -0.5532 0.9956
-0.9261 0.2359 -0.5517 0.9956
-0.9464 0.1528 -0.5535 0.9956
-0.9575 -0.0177 -0.5529 0.9956
-0.9148 -0.2695 -0.5506 0.9956
-0.8980 -0.3543 -0.5573 0.9956
-0.8683 -0.4357 -0.5609 0.9955
-2.5720 -2.3159 -1.9982 0.9841
-2.3556 -2.5364 -1.9985 0.9841
-1.6008 -3.0711 -1.9995 0.9841
-0.7311 -3.3873 -2.0007 0.9841
-0.1176 -3.4646 -2.0015 0.9841
0.1919 -3.4620 -2.0019 0.9841
0.5000 -3.4317 -2.0022 0.9841
1.3915 -3.1787 -2.0033 0.9841
1.9348 -2.8818 -2.0040 0.9841
2.1844 -2.6982 -2.0043 0.9841
2.4167 -2.4929 -2.0046 0.9841
2.8218 -2.0243 -2.0050 0.9841
2.9914 -1.7647 -2.0052 0.9841
2.0372 0.1884 -1.1812 0.9906
3.1279 1.5089 -2.0051 0.9841
2.8094 2.0402 -2.0046 0.9841
2.6159 2.2824 -2.0043 0.9841
2.1681 2.7100 -2.0037 0.9841
1.6515 3.0510 -2.0030 0.9841
1.0827 3.2947 -2.0023 0.9841
0.7844 3.3775 -2.0019 0.9841
0.4799 3.4333 -2.0015 0.9841
0.1717 3.4617 -2.0011 0.9841
-0.1377 3.4626 -2.0007 0.9841
-1.3389 3.1934 -1.9992 0.9841
-1.6181 3.0607 -1.9989 0.9841
-2.1355 2.7237 -1.9982 0.9841
-2.5848 2.3003 -1.9977 0.9841
-0.7868 0.5832 -0.5654 0.9955
-0.8298 0.5072 -0.5615 0.9955
-0.8990 0.3487 -0.5567 0.9956
-0.9167 0.2642 -0.5508 0.9956
-0.9542 0.0977 -0.5538 0.9956
-0.9574 0.0122 -0.5528 0.9956
-0.9562 -0.0734 -0.5537 0.9956
-0.9454 -0.1583 -0.5534 0.9956
-0.9244 -0.2412 -0.5516 0.9956
-0.9029 -0.3240 -0.5539 0.9956
-0.8803 -0.4078 -0.5602 0.9955
-2.6430 -2.2342 -1.9981 0.9841
-2.2046 -2.6691 -1.9987 0.9841
-1.9581 -2.8556 -1.9991 0.9841
-1.6959 -3.0194 -1.9994 0.9841
-1.4201 -3.1592 -1.9998 0.9841
-0.8365 -3.3625 -2.0005 0.9841
-0.5333 -3.4244 -2.0009 0.9841
-0.2258 -3.4590 -2.0013 0.9841
0.0836 -3.4661 -2.0017 0.9841
0.3925 -3.4454 -2.0021 0.9841
0.9988 -3.3221 -2.0029 0.9841
1.5738 -3.0929 -2.0036 0.9841
2.3375 -2.5671 -2.0045 0.9841
2.7571 -2.1114 -2.0050 0.9841
3.0890 -1.5882 -2.0053 0.9841
1.8636 -0.7565 -1.1612 0.9908
1.9262 -0.5880 -1.1627 0.9907
2.0354 -0.2406 -1.1833 0.9906
2.0302 -0.0575 -1.1726 0.9907
1.8959 0.6471 -1.1566 0.9908
1.8545 0.8242 -1.1717 0.9907
3.0349 1.6878 -2.0049 0.9841
2.2518 2.6411 -2.0038 0.9841
1.4715 3.1414 -2.0028 0.9841
1.1852 3.2595 -2.0024 0.9841
0.2798 3.4549 -2.0012 0.9841
-0.0294 3.4654 -2.0008 0.9841
-0.6445 3.4037 -2.0001 0.9841
-0.9453 3.3321 -1.9997 0.9841
-2.0495 2.7892 -1.9983 0.9841
-2.2898 2.5949 -1.9981 0.9841
-2.5118 2.3800 -1.9978 0.9841
-0.7717 0.6103 -0.5680 0.9955
-0.8130 0.5325 -0.5611 0.9955
-0.8576 0.4580 -0.5613 0.9955
-0.9067 0.2924 -0.5500 0.9956
-0.9332 0.2112 -0.5524 0.9956
-0.9506 0.1275 -0.5537 0.9956
-0.9504 -0.1287 -0.5537 0.9956
-0.9065 -0.2937 -0.5502 0.9956
-0.8910 -0.3794 -0.5591 0.9955
-0.8123 -0.5336 -0.5611 0.9955
-0.7710 -0.6115 -0.5681 0.9955
-2.2869 -2.5988 -1.9986 0.9841
-1.7893 -2.9648 -1.9993 0.9841
-1.5180 -3.1131 -1.9996 0.9841
-0.9411 -3.3345 -2.0004 0.9841
-0.6400 -3.4058 -2.0008 0.9841
0.5919 -3.4173 -2.0024 0.9841
1.7508 -2.9967 -2.0038 0.9841
2.2561 -2.6387 -2.0044 0.9841
2.6897 -2.1964 -2.0049 0.9841
2.8752 -1.9480 -2.0051 0.9841
3.0377 -1.6839 -2.0053 0.9841
1.8550 -0.8214 -1.1713 0.9907
2.0282 -0.3043 -1.1841 0.9906
2.0356 -0.1215 -1.1773 0.9906
2.0306 0.0604 -1.1729 0.9907
2.0352 0.2434 -1.1834 0.9906
1.9250 0.5905 -1.1625 0.9907
1.8633 0.7593 -1.1617 0.9907
3.0863 1.5922 -2.0050 0.9841
2.9316 1.8609 -2.0048 0.9841
2.7536 2.1147 -2.0045 0.9841
2.5536 2.3516 -2.0042 0.9841
1.8391 2.9423 -2.0033 0.9841
1.2866 3.2210 -2.0025 0.9841
0.9939 3.3223 -2.0021 0.9841
0.6935 3.3971 -2.0018 0.9841
-1.1369 3.2712 -1.9994 0.9841
-1.4239 3.1562 -1.9991 0.9841
-1.6995 3.0161 -1.9988 0.9841
-1.9614 2.8520 -1.9984 0.9841
-2.4363 2.4575 -1.9979 0.9841
-2.6454 2.2301 -1.9976 0.9841
-0.8432 0.4848 -0.5615 0.9955
-0.8808 0.4066 -0.5601 0.9955
-0.9248 0.2399 -0.5516 0.9956
-0.9562 0.0721 -0.5537 0.9956
-0.9574 -0.0135 -0.5528 0.9956
-0.9541 -0.0990 -0.5538 0.9956
-0.8988 -0.3500 -0.5569 0.9956
-0.8701 -0.4318 -0.5608 0.9955
-0.8291 -0.5083 -0.5615 0.9955
-0.7861 -0.5844 -0.5656 0.9955
-2.3668 -2.5259 -1.9985 0.9841
-1.6144 -3.0639 -1.9995 0.9841
-1.3350 -3.1963 -1.9999 0.9841
-0.4414 -3.4377 -2.0010 0.9841
0.1765 -3.4628 -2.0018 0.9841
1.0876 -3.2944 -2.0030 0.9841
1.9219 -2.8903 -2.0040 0.9841
2.1724 -2.7078 -2.0043 0.9841
2.4056 -2.5036 -2.0046 0.9841
2.9836 -1.7780 -2.0052 0.9841
3.1305 -1.5049 -2.0054 0.9841
1.8680 -0.7005 -1.1518 0.9908
1.9478 -0.5379 -1.1666 0.9907
2.0142 -0.3668 -1.1820 0.9906
2.0371 0.1793 -1.1807 0.9906
1.8683 0.6941 -1.1507 0.9908
3.1346 1.4950 -2.0051 0.9841
2.9884 1.7685 -2.0048 0.9841
2.6260 2.2707 -2.0043 0.9841
2.4126 2.4955 -2.0040 0.9841
2.1801 2.7004 -2.0037 0.9841
1.6650 3.0437 -2.0030 0.9841
1.0973 3.2899 -2.0023 0.9841
