ply
format ascii 1.0
element vertex 1594
property float32 x
property float32 y
property float32 z
property float32 I
end_header
3.4985 -8.8336 -2.0084 0.9619
4.2752 -8.4918 -2.0096 0.9619
5.7227 -7.6058 -2.0120 0.9618
6.9899 -6.4745 -2.0140 0.9618
8.0354 -5.1335 -2.0156 0.9618
8.8246 -3.6261 -2.0167 0.9617
9.5280 0.5407 -2.0173 0.9617
9.2772 2.2243 -2.0166 0.9617
9.0395 3.0421 -2.0161 0.9618
8.7293 3.8350 -2.0154 0.9618
8.3493 4.5966 -2.0147 0.9618
7.9026 5.3207 -2.0138 0.9618
6.1976 7.2062 -2.0091 0.9619
5.4155 7.5699 -1.9674 0.9627
4.4618 7.5862 -1.8604 0.9647
3.0304 8.2241 -1.8527 0.9648
2.2831 8.4556 -1.8514 0.9648
-0.0369 8.7394 -1.8474 0.9649
-0.8156 8.6951 -1.8460 0.9649
-1.5868 8.5816 -1.8447 0.9649
-3.0821 8.1522 -1.8422 0.9650
-4.5164 7.5328 -1.8566 0.9647
-5.4671 7.5076 -1.9631 0.9627
-6.8009 6.4998 -1.9885 0.9623
-7.3505 5.8648 -1.9877 0.9623
-8.9272 2.9207 -1.9854 0.9623
-9.1509 2.1126 -1.9852 0.9623
-9.3799 0.4530 -1.9850 0.9623
-9.3835 -0.3855 -1.9852 0.9623
-8.9516 -2.8576 -1.9863 0.9623
-8.6637 -3.6457 -1.9869 0.9623
-8.3070 -4.4056 -1.9876 0.9623
-7.3986 -5.8165 -1.9893 0.9623
-6.8538 -6.4566 -1.9904 0.9622
-5.6040 -7.5804 -1.9927 0.9622
-4.9086 -8.0551 -1.9939 0.9622
-4.1733 -8.4663 -1.9952 0.9621
-2.6062 -9.0857 -1.9980 0.9621
-1.7867 -9.2886 -1.9994 0.9621
1.5788 -9.3538 -2.0052 0.9620
3.2201 -8.9366 -2.0079 0.9619
-8.4532 -0.0065 -1.9867 0.9659
-8.3194 -1.5087 -1.9871 0.9659
-8.1533 -2.2451 -1.9875 0.9658
-7.9225 -2.9642 -1.9880 0.9658
-6.3953 -5.5559 -1.9910 0.9658
-5.3117 -6.6104 -1.9930 0.9658
-4.0573 -7.4575 -1.9953 0.9657
-3.3780 -7.7943 -1.9965 0.9657
-0.4401 -8.5052 -2.0016 0.9656
1.0795 -8.4590 -2.0042 0.9656
2.5685 -8.1427 -2.0067 0.9655
4.6404 -7.1843 -2.0101 0.9655
5.2653 -6.7452 -2.0111 0.9655
6.3856 -5.7073 -2.0128 0.9654
6.8717 -5.1168 -2.0136 0.9654
7.3031 -4.4850 -2.0142 0.9654
8.2351 -2.3930 -2.0155 0.9654
8.4165 -1.6491 -2.0157 0.9654
8.5304 -0.8919 -2.0158 0.9654
8.4603 1.3980 -2.0153 0.9654
8.0737 2.8777 -2.0144 0.9654
7.0164 4.9074 -2.0123 0.9654
6.5479 5.5113 -2.0115 0.9654
6.0273 6.0704 -2.0105 0.9655
4.8476 7.0372 -2.0083 0.9655
4.1871 7.4176 -2.0019 0.9656
3.4184 7.5615 -1.9503 0.9665
2.6373 7.5693 -1.8838 0.9676
1.9175 7.6382 -1.8508 0.9682
0.5291 7.8471 -1.8484 0.9682
-0.1728 7.8580 -1.8473 0.9682
-1.5642 7.6925 -1.8449 0.9683
-2.2515 7.5470 -1.8510 0.9682
-3.0019 7.5325 -1.9057 0.9672
-4.4830 7.1845 -1.9903 0.9658
-5.1088 6.7598 -1.9914 0.9658
-5.6888 6.2743 -1.9905 0.9658
-7.1389 4.5393 -1.9883 0.9658
-7.5133 3.8834 -1.9877 0.9658
-7.8280 3.1971 -1.9873 0.9659
-8.0806 2.4857 -1.9870 0.9659
-8.2692 1.7548 -1.9867 0.9659
-8.3924 1.0102 -1.9866 0.9659
-8.4491 0.2576 -1.9867 0.9659
-8.3620 -1.2479 -1.9870 0.9659
-6.5647 -5.3524 -1.9907 0.9658
-6.0640 -5.9194 -1.9916 0.9658
-5.5146 -6.4400 -1.9926 0.9658
-4.9209 -6.9100 -1.9937 0.9657
-4.2874 -7.3255 -1.9949 0.9657
-3.6191 -7.6833 -1.9961 0.9657
-2.1991 -8.2144 -1.9986 0.9657
-1.4586 -8.3832 -1.9998 0.9656
0.0542 -8.5200 -2.0024 0.9656
0.8144 -8.4867 -2.0037 0.9656
2.3123 -8.2173 -2.0062 0.9655
3.0378 -7.9831 -2.0075 0.9655
3.7399 -7.6847 -2.0086 0.9655
6.2033 -5.9032 -2.0125 0.9654
6.7077 -5.3284 -2.0133 0.9654
7.1586 -4.7105 -2.0140 0.9654
7.5524 -4.0543 -2.0146 0.9654
7.8857 -3.3654 -2.0150 0.9654
8.1559 -2.6490 -2.0154 0.9654
8.4983 -1.1580 -2.0158 0.9654
8.5684 0.3704 -2.0157 0.9654
8.5003 1.1331 -2.0154 0.9654
8.3639 1.8864 -2.0151 0.9654
8.1605 2.6243 -2.0146 0.9654
7.8916 3.3408 -2.0141 0.9654
7.5597 4.0300 -2.0134 0.9654
7.1674 4.6865 -2.0126 0.9654
6.7180 5.3048 -2.0118 0.9654
6.2151 5.8801 -2.0108 0.9655
5.6630 6.4078 -2.0098 0.9655
5.0661 6.8836 -2.0087 0.9655
3.7055 7.5580 -1.9783 0.9660
2.9047 7.5669 -1.9049 0.9672
2.1562 7.5782 -1.8518 0.9681
0.7743 7.8286 -1.8489 0.9682
-1.3234 7.7393 -1.8453 0.9683
-2.0072 7.5857 -1.8442 0.9683
-2.7344 7.5380 -1.8846 0.9676
-3.5160 7.5211 -1.9512 0.9665
-4.8959 6.9173 -1.9917 0.9658
-6.0416 5.9320 -1.9899 0.9658
-7.3889 4.1167 -1.9879 0.9658
-7.7248 3.4403 -1.9874 0.9658
-7.9994 2.7371 -1.9871 0.9659
-8.4501 -0.2331 -1.9867 0.9659
-8.0907 -2.4631 -1.9877 0.9658
-7.1568 -4.5215 -1.9896 0.9658
-6.7277 -5.1439 -1.9904 0.9658
-6.2449 -5.7261 -1.9913 0.9658
-5.7121 -6.2634 -1.9923 0.9658
-4.5133 -7.1865 -1.9945 0.9657
-3.1684 -7.8835 -1.9969 0.9657
-2.4542 -8.1398 -1.9981 0.9657
-1.7195 -8.3316 -1.9994 0.9656
0.5487 -8.5061 -2.0033 0.9656
1.3061 -8.4286 -2.0046 0.9656
4.1810 -7.4574 -2.0093 0.9655
4.8320 -7.0584 -2.0104 0.9655
6.0149 -6.0933 -2.0123 0.9654
6.5370 -5.5347 -2.0131 0.9654
7.7761 -3.6098 -2.0149 0.9654
8.2966 -2.1715 -2.0156 0.9654
8.4579 -1.4229 -2.0157 0.9654
8.5319 0.8669 -2.0155 0.9654
7.6829 3.7923 -2.0136 0.9654
6.8815 5.0931 -2.0121 0.9654
3.1782 7.5642 -1.9283 0.9668
1.7117 7.6853 -1.8505 0.9682
0.3185 7.8570 -1.8481 0.9682
-0.3833 7.8490 -1.8469 0.9682
-1.0812 7.7786 -1.8457 0.9682
-2.4724 7.5430 -1.8656 0.9679
-4.0184 7.4375 -1.9868 0.9659
-5.2874 6.6195 -1.9911 0.9658
-5.8541 6.1188 -1.9902 0.9658
-6.3740 5.5700 -1.9894 0.9658
-7.6141 3.6803 -1.9876 0.9658
-8.3131 1.5325 -1.9867 0.9659
-8.4164 0.7849 -1.9866 0.9659
-8.4531 0.0311 -1.9867 0.9659
-8.4228 -0.7231 -1.9868 0.9659
-7.6449 -3.6261 -1.9886 0.9658
-7.2936 -4.2950 -1.9893 0.9658
-6.8841 -4.9304 -1.9901 0.9658
-6.4198 -5.5273 -1.9910 0.9658
-5.9040 -6.0808 -1.9919 0.9658
-5.3409 -6.5866 -1.9930 0.9658
-4.7347 -7.0406 -1.9941 0.9657
-2.7067 -8.0574 -1.9977 0.9657
0.2826 -8.5172 -2.0028 0.9656
1.0418 -8.4634 -2.0041 0.9656
1.7937 -8.3421 -2.0054 0.9655
2.5322 -8.1538 -2.0066 0.9655
3.9452 -7.5829 -2.0089 0.9655
4.6083 -7.2047 -2.0100 0.9655
5.2352 -6.7683 -2.0110 0.9655
6.3600 -5.7355 -2.0128 0.9654
6.8488 -5.1472 -2.0135 0.9654
7.2829 -4.5173 -2.0142 0.9654
7.6589 -3.8507 -2.0147 0.9654
8.2243 -2.4296 -2.0155 0.9654
8.5264 -0.9297 -2.0158 0.9654
8.5752 -0.1655 -2.0157 0.9654
8.5552 0.5999 -2.0156 0.9654
8.0865 2.8419 -2.0145 0.9654
7.7985 3.5508 -2.0139 0.9654
6.0544 6.0437 -2.0105 0.9655
5.4883 6.5562 -2.0095 0.9655
1.2623 7.7685 -1.8497 0.9682
0.5640 7.8450 -1.8485 0.9682
-0.8378 7.8103 -1.8461 0.9682
-1.5301 7.6996 -1.8450 0.9683
-2.9635 7.5333 -1.9026 0.9673
-3.7620 7.5153 -1.9752 0.9661
-5.0788 6.7826 -1.9914 0.9658
-5.6610 6.2997 -1.9905 0.9658
-6.1977 5.7672 -1.9897 0.9658
-6.6849 5.1895 -1.9889 0.9658
-7.1188 4.5710 -1.9883 0.9658
-7.8138 3.2318 -1.9873 0.9659
-8.0696 2.5216 -1.9870 0.9659
-8.2275 -1.9526 -1.9874 0.9659
-7.7536 -3.3851 -1.9884 0.9658
-7.4233 -4.0646 -1.9890 0.9658
-7.0338 -4.7123 -1.9898 0.9658
-6.5883 -5.3231 -1.9906 0.9658
-5.5431 -6.4153 -1.9926 0.9658
-4.9514 -6.8878 -1.9937 0.9657
-4.3198 -7.3062 -1.9948 0.9657
-2.2355 -8.2043 -1.9985 0.9657
2.2757 -8.2272 -2.0062 0.9655
3.0022 -7.9962 -2.0074 0.9655
3.7056 -7.7010 -2.0085 0.9655
5.6208 -6.4551 -2.0116 0.9654
6.1768 -5.9306 -2.0125 0.9654
7.8706 -3.4003 -2.0150 0.9654
8.1440 -2.6852 -2.0154 0.9654
8.5659 -0.4334 -2.0158 0.9654
8.5700 0.3324 -2.0157 0.9654
7.9065 3.3057 -2.0141 0.9654
7.5777 3.9965 -2.0134 0.9654
7.1883 4.6547 -2.0127 0.9654
6.7416 5.2750 -2.0118 0.9654
6.2413 5.8526 -2.0109 0.9655
5.6916 6.3827 -2.0099 0.9655
5.0968 6.8613 -2.0088 0.9655
4.4557 7.2742 -2.0048 0.9656
3.7469 7.5575 -1.9825 0.9659
2.9432 7.5666 -1.9081 0.9672
1.5048 7.7270 -1.8501 0.9682
-1.2890 7.7453 -1.8454 0.9683
-1.9735 7.5948 -1.8442 0.9683
-3.4758 7.5221 -1.9475 0.9665
-4.2194 7.3324 -1.9882 0.9658
-5.4622 6.4745 -1.9908 0.9658
-6.0153 5.9589 -1.9900 0.9658
-6.5203 5.3965 -1.9892 0.9658
-6.9732 4.7918 -1.9885 0.9658
-7.3707 4.1495 -1.9879 0.9658
-7.7096 3.4746 -1.9874 0.9658
-8.4344 0.5590 -1.9866 0.9659
-8.4510 -0.1955 -1.9867 0.9659
-8.1015 -2.4271 -1.9876 0.9658
-7.1766 -4.4895 -1.9895 0.9658
-5.1632 -6.7285 -1.9933 0.9658
-3.8901 -7.5475 -1.9956 0.9657
-1.0076 -8.4526 -2.0006 0.9656
-0.2498 -8.5143 -2.0019 0.9656
2.7503 -8.0845 -2.0070 0.9655
3.4625 -7.8115 -2.0082 0.9655
4.8005 -7.0796 -2.0103 0.9655
5.4155 -6.6265 -2.0113 0.9654
5.9876 -6.1198 -2.0122 0.9654
6.5123 -5.5636 -2.0130 0.9654
6.9850 -4.9623 -2.0137 0.9654
8.0556 -2.9382 -2.0153 0.9654
8.5483 -0.7009 -2.0158 0.9654
8.5764 0.0644 -2.0157 0.9654
8.0068 3.0574 -2.0143 0.9654
7.3312 4.4284 -2.0129 0.9654
6.9042 5.0626 -2.0121 0.9654
6.4222 5.6557 -2.0112 0.9654
5.8893 6.2029 -2.0102 0.9655
4.6871 7.1410 -2.0075 0.9655
4.0167 7.5028 -2.0001 0.9656
1.7459 7.6779 -1.8505 0.9682
0.3535 7.8557 -1.8481 0.9682
-0.3484 7.8509 -1.8470 0.9682
-1.7356 7.6544 -1.8446 0.9683
-2.4355 7.5437 -1.8631 0.9680
-3.1972 7.5283 -1.9223 0.9670
-3.9849 7.4544 -1.9866 0.9659
-4.6458 7.0874 -1.9917 0.9658
-5.2581 6.6431 -1.9912 0.9658
-5.8270 6.1448 -1.9903 0.9658
-6.3493 5.5983 -1.9895 0.9658
-7.2381 4.3782 -1.9881 0.9658
-7.5978 3.7142 -1.9876 0.9658
-7.8972 3.0211 -1.9872 0.9659
-8.1339 2.3043 -1.9869 0.9659
-8.4128 0.8222 -1.9866 0.9659
-8.4259 -0.6857 -1.9868 0.9659
-8.1727 -2.1726 -1.9875 0.9658
-7.6608 -3.5921 -1.9886 0.9658
-5.9308 -6.0543 -1.9919 0.9658
-4.7658 -7.0193 -1.9940 0.9657
-4.1231 -7.4207 -1.9952 0.9657
-3.4469 -7.7635 -1.9964 0.9657
-1.2710 -8.4151 -2.0002 0.9656
-0.5157 -8.5004 -2.0015 0.9656
0.2448 -8.5181 -2.0028 0.9656
3.9114 -7.6002 -2.0089 0.9655
4.5761 -7.2249 -2.0100 0.9655
6.3344 -5.7635 -2.0127 0.9654
7.2627 -4.5495 -2.0142 0.9654
7.6416 -3.8847 -2.0147 0.9654
7.9594 -3.1883 -2.0151 0.9654
8.2134 -2.4660 -2.0155 0.9654
8.5222 -0.9676 -2.0158 0.9654
8.5744 -0.2036 -2.0157 0.9654
8.3192 2.0729 -2.0150 0.9654
7.8143 3.5162 -2.0139 0.9654
7.0601 4.8451 -2.0124 0.9654
5.5175 6.5320 -2.0095 0.9655
4.9102 6.9942 -2.0084 0.9655
3.4992 7.5606 -1.9580 0.9663
2.7127 7.5686 -1.8896 0.9675
1.9854 7.6213 -1.8510 0.9682
1.2968 7.7630 -1.8498 0.9682
0.5989 7.8427 -1.8486 0.9682
-0.1030 7.8597 -1.8474 0.9682
-0.8031 7.8142 -1.8462 0.9682
-1.4959 7.7065 -1.8450 0.9683
-3.7208 7.5163 -1.9711 0.9661
-5.6330 6.3249 -1.9906 0.9658
-6.1721 5.7948 -1.9897 0.9658
-7.0985 4.6027 -1.9883 0.9658
-7.7994 3.2665 -1.9873 0.9659
-8.0583 2.5574 -1.9870 0.9659
-8.3831 1.0848 -1.9866 0.9659
-8.4430 -0.4220 -1.9868 0.9659
-8.2360 -1.9160 -1.9873 0.9659
-8.0341 -2.6436 -1.9878 0.9658
-7.7685 -3.3505 -1.9883 0.9658
-6.1161 -5.8650 -1.9915 0.9658
-5.5714 -6.3904 -1.9925 0.9658
-4.9818 -6.8656 -1.9936 0.9657
-2.9918 -7.9537 -1.9972 0.9657
-2.2719 -8.1940 -1.9984 0.9657
-1.5329 -8.3694 -1.9997 0.9656
0.7390 -8.4931 -2.0036 0.9656
2.2390 -8.2370 -2.0061 0.9655
3.6713 -7.7172 -2.0085 0.9655
4.9893 -6.9495 -2.0106 0.9655
5.5920 -6.4798 -2.0116 0.9654
6.1503 -5.9578 -2.0125 0.9654
7.1162 -4.7737 -2.0139 0.9654
7.8553 -3.4352 -2.0150 0.9654
8.1319 -2.7214 -2.0154 0.9654
8.5639 -0.4714 -2.0158 0.9654
8.5714 0.2943 -2.0157 0.9654
8.5101 1.0575 -2.0155 0.9654
8.3805 1.8121 -2.0151 0.9654
8.1837 2.5518 -2.0147 0.9654
7.5955 3.9628 -2.0135 0.9654
7.2090 4.6228 -2.0127 0.9654
6.2674 5.8250 -2.0109 0.9655
5.1274 6.8387 -2.0088 0.9655
3.7886 7.5569 -1.9867 0.9659
0.8438 7.8219 -1.8490 0.9682
0.1427 7.8609 -1.8478 0.9682
-1.2547 7.7512 -1.8454 0.9683
-3.4358 7.5230 -1.9437 0.9666
-4.1863 7.3502 -1.9880 0.9658
-4.8345 6.9609 -1.9918 0.9658
-6.4964 5.4255 -1.9892 0.9658
-7.3523 4.1822 -1.9879 0.9658
-8.1925 2.0853 -1.9868 0.9659
-8.4319 0.5965 -1.9866 0.9659
-8.4048 -0.9113 -1.9869 0.9659
-8.2913 -1.6576 -1.9872 0.9659
-8.1121 -2.3910 -1.9876 0.9658
-7.8685 -3.1059 -1.9881 0.9658
-7.5625 -3.7965 -1.9888 0.9658
-5.7673 -6.2121 -1.9922 0.9658
-4.5767 -7.1457 -1.9943 0.9657
-3.9234 -7.5299 -1.9955 0.9657
-3.2381 -7.8546 -1.9967 0.9657
0.4731 -8.5101 -2.0032 0.9656
2.7143 -8.0964 -2.0069 0.9655
4.1144 -7.4938 -2.0092 0.9655
5.3859 -6.6503 -2.0113 0.9654
5.9603 -6.1462 -2.0122 0.9654
6.4874 -5.5923 -2.0130 0.9654
6.9628 -4.9932 -2.0137 0.9654
7.3827 -4.3536 -2.0143 0.9654
8.0424 -2.9740 -2.0152 0.9654
8.4449 -1.4980 -2.0157 0.9654
8.5451 -0.7388 -2.0158 0.9654
8.5766 0.0263 -2.0157 0.9654
7.3510 4.3959 -2.0130 0.9654
6.9268 5.0320 -2.0122 0.9654
5.3396 6.6765 -2.0092 0.9655
4.7197 7.1215 -2.0079 0.9655
4.0506 7.4862 -2.0005 0.9656
2.4865 7.5705 -1.8727 0.9678
-1.0121 7.7883 -1.8458 0.9682
-1.7017 7.6622 -1.8447 0.9683
-3.9513 7.4712 -1.9863 0.9659
-5.7998 6.1708 -1.9903 0.9658
-6.7987 5.0382 -1.9888 0.9658
-7.5813 3.7479 -1.9876 0.9658
-7.8837 3.0561 -1.9872 0.9659
-8.1237 2.3404 -1.9869 0.9659
-8.2992 1.6063 -1.9867 0.9659
-8.4524 0.1062 -1.9867 0.9659
-8.4289 -0.6482 -1.9868 0.9659
-7.9610 -2.8582 -1.9879 0.9658
-7.6766 -3.5579 -1.9885 0.9658
-6.4683 -5.4698 -1.9909 0.9658
-4.7968 -6.9978 -1.9939 0.9657
-2.7780 -8.0325 -1.9975 0.9657
-1.3083 -8.4091 -2.0001 0.9656
-0.5534 -8.4978 -2.0014 0.9656
0.2069 -8.5188 -2.0027 0.9656
1.7194 -8.3571 -2.0053 0.9655
2.4595 -8.1755 -2.0065 0.9655
3.8775 -7.6173 -2.0088 0.9655
4.5439 -7.2450 -2.0099 0.9655
5.7644 -6.3285 -2.0119 0.9654
6.8026 -5.2077 -2.0135 0.9654
8.3937 -1.7611 -2.0157 0.9654
8.5602 0.5239 -2.0156 0.9654
8.3284 2.0359 -2.0150 0.9654
8.1117 2.7700 -2.0145 0.9654
7.8300 3.4815 -2.0139 0.9654
7.4857 4.1646 -2.0133 0.9654
6.6212 5.4239 -2.0116 0.9654
5.5466 6.5076 -2.0096 0.9655
4.2879 7.3652 -2.0030 0.9656
3.5398 7.5601 -1.9619 0.9663
2.7506 7.5683 -1.8926 0.9675
2.0193 7.6127 -1.8510 0.9682
0.6337 7.8402 -1.8486 0.9682
-0.0681 7.8603 -1.8474 0.9682
-0.7684 7.8179 -1.8462 0.9682
-1.4617 7.7133 -1.8451 0.9683
-2.8871 7.5349 -1.8964 0.9674
-3.6798 7.5172 -1.9670 0.9662
-5.6050 6.3500 -1.9906 0.9658
-7.0781 4.6342 -1.9884 0.9658
-8.0470 2.5932 -1.9870 0.9659
-8.3782 1.1220 -1.9866 0.9659
-8.4447 -0.3845 -1.9868 0.9659
-8.2444 -1.8794 -1.9873 0.9659
-8.0457 -2.6078 -1.9878 0.9658
-7.4588 -3.9983 -1.9890 0.9658
-7.0751 -4.6494 -1.9897 0.9658
-6.1419 -5.8377 -1.9915 0.9658
-5.5995 -6.3654 -1.9925 0.9658
-5.0122 -6.8432 -1.9936 0.9657
-3.0270 -7.9401 -1.9971 0.9657
-2.3082 -8.1836 -1.9984 0.9657
-0.8185 -8.4744 -2.0009 0.9656
0.7012 -8.4960 -2.0035 0.9656
2.2024 -8.2466 -2.0061 0.9655
2.9309 -8.0221 -2.0073 0.9655
3.6369 -7.7332 -2.0084 0.9655
4.3145 -7.3821 -2.0095 0.9655
5.5630 -6.5045 -2.0115 0.9654
6.6357 -5.4171 -2.0132 0.9654
7.0949 -4.8052 -2.0139 0.9654
7.4974 -4.1545 -2.0145 0.9654
7.8399 -3.4700 -2.0150 0.9654
8.1197 -2.7574 -2.0153 0.9654
8.3343 -2.0225 -2.0156 0.9654
8.5727 0.2562 -2.0157 0.9654
7.6131 3.9291 -2.0135 0.9654
7.2296 4.5908 -2.0128 0.9654
5.7483 6.3323 -2.0100 0.9655
5.1578 6.8161 -2.0089 0.9655
3.8304 7.5564 -1.9911 0.9658
2.2643 7.5731 -1.8577 0.9680
0.8786 7.8183 -1.8490 0.9682
0.1776 7.8604 -1.8478 0.9682
-0.5239 7.8399 -1.8467 0.9682
-2.6220 7.5402 -1.8762 0.9677
-3.3958 7.5239 -1.9401 0.9667
-4.1531 7.3678 -1.9877 0.9658
-4.8037 6.9825 -1.9919 0.9658
-5.9624 6.0123 -1.9901 0.9658
-6.4723 5.4544 -1.9893 0.9658
-7.3337 4.2149 -1.9880 0.9658
-8.1832 2.1217 -1.9868 0.9659
-8.3392 1.3833 -1.9867 0.9659
-8.4291 0.6339 -1.9866 0.9659
-8.4524 -0.1205 -1.9867 0.9659
-8.2985 -1.6207 -1.9872 0.9659
-8.1225 -2.3549 -1.9876 0.9658
-6.3203 -5.6420 -1.9912 0.9658
-5.2225 -6.6820 -1.9932 0.9658
-4.6083 -7.1251 -1.9943 0.9657
-3.2729 -7.8399 -1.9967 0.9657
-1.8302 -8.3072 -1.9992 0.9657
-0.3255 -8.5112 -2.0018 0.9656
0.4353 -8.5118 -2.0031 0.9656
1.1935 -8.4445 -2.0044 0.9656
3.3927 -7.8415 -2.0080 0.9655
4.0810 -7.5118 -2.0092 0.9655
4.7372 -7.1217 -2.0102 0.9655
5.9328 -6.1725 -2.0121 0.9654
6.4623 -5.6210 -2.0129 0.9654
7.3632 -4.3863 -2.0143 0.9654
8.0291 -3.0096 -2.0152 0.9654
8.2667 -2.2818 -2.0155 0.9654
8.4381 -1.5355 -2.0157 0.9654
8.5417 -0.7768 -2.0158 0.9654
7.3706 4.3633 -2.0130 0.9654
6.9492 5.0013 -2.0122 0.9654
6.4725 5.5987 -2.0113 0.9654
4.7519 7.1013 -2.0082 0.9655
3.2969 7.5629 -1.9390 0.9667
2.5237 7.5702 -1.8754 0.9677
1.8142 7.6626 -1.8507 0.9682
1.1228 7.7888 -1.8495 0.9682
0.4232 7.8528 -1.8483 0.9682
-0.2787 7.8542 -1.8471 0.9682
-0.9775 7.7930 -1.8459 0.9682
-1.6676 7.6700 -1.8447 0.9683
-2.3621 7.5450 -1.8581 0.9680
-3.1193 7.5300 -1.9156 0.9671
-5.7724 6.1967 -1.9903 0.9658
-6.2995 5.6548 -1.9895 0.9658
-6.7763 5.0684 -1.9888 0.9658
-8.4052 0.8970 -1.9866 0.9659
-8.4519 0.1437 -1.9867 0.9659
-8.4316 -0.6108 -1.9868 0.9659
-8.3446 -1.3606 -1.9871 0.9659
-8.1915 -2.0999 -1.9874 0.9658
-7.9735 -2.8228 -1.9879 0.9658
-7.6922 -3.5238 -1.9885 0.9658
-7.3498 -4.1972 -1.9892 0.9658
-5.9841 -6.0011 -1.9918 0.9658
-4.1887 -7.3833 -1.9950 0.9657
-2.8135 -8.0199 -1.9975 0.9657
-2.0883 -8.2441 -1.9988 0.9657
0.1690 -8.5194 -2.0026 0.9656
1.6823 -8.3644 -2.0052 0.9655
2.4231 -8.1861 -2.0064 0.9655
3.1454 -7.9421 -2.0076 0.9655
4.5115 -7.2649 -2.0099 0.9655
5.1442 -6.8370 -2.0109 0.9655
6.2827 -5.8194 -2.0127 0.9654
6.7793 -5.2378 -2.0134 0.9654
7.2218 -4.6138 -2.0141 0.9654
7.6066 -3.9523 -2.0147 0.9654
8.1910 -2.5389 -2.0154 0.9654
8.5132 -1.0433 -2.0158 0.9654
8.5723 -0.2798 -2.0158 0.9654
8.5625 0.4859 -2.0156 0.9654
8.4840 1.2475 -2.0154 0.9654
8.3374 1.9989 -2.0150 0.9654
8.1240 2.7340 -2.0146 0.9654
7.8455 3.4467 -2.0140 0.9654
7.5043 4.1313 -2.0133 0.9654
7.1031 4.7824 -2.0125 0.9654
6.6454 5.3945 -2.0116 0.9654
6.1348 5.9629 -2.0107 0.9655
4.9725 6.9507 -2.0086 0.9655
4.3214 7.3474 -2.0033 0.9656
3.5806 7.5596 -1.9659 0.9662
2.7886 7.5680 -1.8956 0.9674
1.3659 7.7517 -1.8499 0.9682
0.6686 7.8375 -1.8487 0.9682
-0.0332 7.8608 -1.8475 0.9682
-1.4275 7.7200 -1.8451 0.9683
-2.8491 7.5357 -1.8934 0.9674
-3.6390 7.5182 -1.9631 0.9663
-4.3524 7.2593 -1.9892 0.9658
-5.5769 6.3750 -1.9907 0.9658
-7.0576 4.6657 -1.9884 0.9658
-7.4435 4.0165 -1.9878 0.9658
-7.7703 3.3358 -1.9874 0.9659
-8.2369 1.9016 -1.9868 0.9659
-8.4463 -0.3470 -1.9867 0.9659
-8.3826 -1.0991 -1.9870 0.9659
-7.7977 -3.2813 -1.9883 0.9658
-7.4764 -3.9651 -1.9889 0.9658
-6.6582 -5.2345 -1.9905 0.9658
-6.1676 -5.8102 -1.9914 0.9658
-5.6276 -6.3404 -1.9924 0.9658
-5.0423 -6.8207 -1.9935 0.9657
-4.4164 -7.2473 -1.9946 0.9657
-3.7546 -7.6169 -1.9958 0.9657
-2.3444 -8.1730 -1.9983 0.9657
-0.8561 -8.4704 -2.0009 0.9656
-0.0972 -8.5185 -2.0022 0.9656
0.6634 -8.4988 -2.0035 0.9656
1.4197 -8.4111 -2.0048 0.9656
2.8952 -8.0348 -2.0072 0.9655
-7.6476 -0.6908 -1.9882 0.9688
-7.4055 -2.0392 -1.9888 0.9688
-6.6068 -3.9303 -1.9904 0.9687
-6.2322 -4.5055 -1.9911 0.9687
-5.8078 -5.0455 -1.9919 0.9687
-5.3370 -5.5458 -1.9928 0.9687
-4.8233 -6.0026 -1.9938 0.9687
-4.2708 -6.4121 -1.9948 0.9687
-3.0669 -7.0765 -1.9969 0.9686
-2.4249 -7.3260 -1.9980 0.9686
-0.3995 -7.7201 -2.0016 0.9686
1.6615 -7.5636 -2.0050 0.9685
2.9822 -7.1559 -2.0072 0.9685
5.7931 -5.1778 -2.0117 0.9684
6.2340 -4.6420 -2.0124 0.9684
6.9633 -3.4623 -2.0135 0.9684
7.4701 -2.1707 -2.0142 0.9684
7.7379 -0.8090 -2.0144 0.9684
7.6744 1.2682 -2.0140 0.9684
7.3241 2.6106 -2.0132 0.9684
6.7398 3.8681 -2.0120 0.9684
6.3656 4.4522 -2.0113 0.9684
5.9408 5.0003 -2.0105 0.9684
5.4687 5.5078 -2.0096 0.9684
3.8097 6.7490 -2.0066 0.9685
3.1908 7.0580 -2.0055 0.9685
2.5428 7.2979 -2.0010 0.9686
1.8776 7.4796 -1.9967 0.9686
0.5086 7.5433 -1.9575 0.9692
-0.1658 7.5403 -1.9528 0.9693
-2.8508 7.1532 -1.9938 0.9687
-3.4781 6.8718 -1.9942 0.9687
-4.0752 6.5310 -1.9932 0.9687
-4.6394 6.1387 -1.9923 0.9687
-5.1663 5.6981 -1.9915 0.9687
-6.0921 4.6861 -1.9900 0.9687
-6.4839 4.1228 -1.9894 0.9688
-6.8241 3.5272 -1.9889 0.9688
-7.1101 2.9039 -1.9886 0.9688
-7.5111 1.5940 -1.9881 0.9688
-7.5952 -1.1335 -1.9883 0.9688
-7.4650 -1.8067 -1.9886 0.9688
-7.2757 -2.4659 -1.9891 0.9688
-6.7256 -3.7215 -1.9902 0.9687
-6.3691 -4.3080 -1.9909 0.9687
-5.9617 -4.8608 -1.9916 0.9687
-5.5068 -5.3755 -1.9925 0.9687
-5.0077 -5.8479 -1.9934 0.9687
-4.4683 -6.2744 -1.9944 0.9687
-3.2859 -6.9759 -1.9965 0.9686
-1.9964 -7.4572 -1.9988 0.9686
-1.3241 -7.6100 -2.0000 0.9686
-0.6404 -7.7023 -2.0011 0.9686
0.7392 -7.7026 -2.0035 0.9685
1.4241 -7.6103 -2.0046 0.9685
3.3936 -6.9731 -2.0079 0.9685
5.6278 -5.3556 -2.0115 0.9684
6.0852 -4.8339 -2.0122 0.9684
6.4941 -4.2732 -2.0128 0.9684
6.8511 -3.6779 -2.0133 0.9684
7.1534 -3.0528 -2.0137 0.9684
7.5840 -1.7337 -2.0143 0.9684
7.7088 -1.0504 -2.0144 0.9684
7.7107 1.0278 -2.0141 0.9684
7.4027 2.3806 -2.0134 0.9684
7.1591 3.0306 -2.0129 0.9684
6.8582 3.6560 -2.0123 0.9684
6.0950 4.8129 -2.0108 0.9684
5.1383 5.8141 -2.0090 0.9684
4.5970 6.2462 -2.0080 0.9685
0.7461 7.5437 -1.9627 0.9692
0.0699 7.5417 -1.9527 0.9693
-1.9666 7.4323 -1.9906 0.9687
-2.6246 7.2352 -1.9928 0.9687
-3.2623 6.9784 -1.9945 0.9687
-3.8698 6.6563 -1.9935 0.9687
-4.4460 6.2817 -1.9926 0.9687
-4.9864 5.8575 -1.9917 0.9687
-5.4869 5.3873 -1.9910 0.9687
-5.9434 4.8747 -1.9902 0.9687
-6.7111 3.7390 -1.9891 0.9688
-7.4578 1.8279 -1.9881 0.9688
-6.4997 -4.1064 -1.9906 0.9687
-5.6712 -5.2000 -1.9922 0.9687
-5.1871 -5.6877 -1.9931 0.9687
-3.5016 -6.8685 -1.9961 0.9686
-2.8766 -7.1574 -1.9972 0.9686
-2.2280 -7.3897 -1.9984 0.9686
-0.8806 -7.6769 -2.0007 0.9686
0.4980 -7.7203 -2.0031 0.9685
1.8640 -7.5176 -2.0054 0.9685
2.5285 -7.3254 -2.0065 0.9685
3.7937 -6.7666 -2.0086 0.9685
4.3842 -6.4043 -2.0095 0.9684
7.5259 -1.9698 -2.0142 0.9684
7.7569 -0.6013 -2.0144 0.9684
7.7793 0.0930 -2.0144 0.9684
7.7394 0.7864 -2.0142 0.9684
7.6373 1.4734 -2.0139 0.9684
7.4741 2.1483 -2.0135 0.9684
7.2510 2.8057 -2.0131 0.9684
6.6330 4.0470 -2.0118 0.9684
5.8038 5.1571 -2.0102 0.9684
5.3183 5.6516 -2.0093 0.9684
2.9990 7.1376 -2.0045 0.9685
1.6755 7.5230 -1.9956 0.9687
-0.3681 7.5388 -1.9543 0.9693
-1.0469 7.5322 -1.9690 0.9691
-1.7329 7.4881 -1.9900 0.9687
-2.3961 7.3104 -1.9919 0.9687
-3.6605 6.7751 -1.9939 0.9687
-4.8017 6.0114 -1.9920 0.9687
-6.2150 4.5207 -1.9898 0.9687
-6.5916 3.9472 -1.9893 0.9688
-6.9158 3.3428 -1.9888 0.9688
-7.1850 2.7121 -1.9885 0.9688
-7.6781 0.0282 -1.9880 0.9688
-7.6506 -0.6568 -1.9882 0.9688
-7.5624 -1.3367 -1.9884 0.9688
-6.2520 -4.4777 -1.9911 0.9687
-5.8300 -5.0195 -1.9919 0.9687
-5.3614 -5.5219 -1.9928 0.9687
-4.8498 -5.9809 -1.9937 0.9687
-3.7138 -6.7544 -1.9958 0.9687
-3.0982 -7.0626 -1.9969 0.9686
-1.7961 -7.5093 -1.9991 0.9686
-1.1198 -7.6441 -2.0003 0.9686
-0.4338 -7.7180 -2.0015 0.9686
0.9456 -7.6813 -2.0038 0.9685
1.6279 -7.5707 -2.0050 0.9685
2.9503 -7.1688 -2.0072 0.9685
3.5798 -6.8806 -2.0082 0.9685
4.1813 -6.5371 -2.0092 0.9684
4.7499 -6.1409 -2.0101 0.9684
6.6068 -4.0979 -2.0130 0.9684
6.9477 -3.4932 -2.0135 0.9684
7.7786 -0.1502 -2.0144 0.9684
7.7604 0.5442 -2.0143 0.9684
7.6801 1.2341 -2.0140 0.9684
7.3357 2.5780 -2.0132 0.9684
7.0747 3.2212 -2.0127 0.9684
6.7570 3.8382 -2.0121 0.9684
6.3855 4.4240 -2.0113 0.9684
5.9630 4.9739 -2.0105 0.9684
4.9799 5.9489 -2.0087 0.9685
4.4272 6.3662 -2.0077 0.9685
3.2222 7.0439 -2.0056 0.9685
2.5755 7.2875 -2.0012 0.9686
1.9110 7.4718 -1.9969 0.9686
0.5423 7.5434 -1.9582 0.9692
-1.4956 7.5263 -1.9868 0.9688
-2.1657 7.3789 -1.9911 0.9687
-2.8187 7.1653 -1.9936 0.9687
-4.6122 6.1594 -1.9923 0.9687
-5.1410 5.7211 -1.9915 0.9687
-6.0714 4.7132 -1.9901 0.9687
-6.8085 3.5575 -1.9890 0.9688
-7.6671 -0.4174 -1.9881 0.9688
-7.6001 -1.0997 -1.9883 0.9688
-7.0422 -3.0745 -1.9895 0.9687
-5.9832 -4.8342 -1.9916 0.9687
-3.9223 -6.6338 -1.9954 0.9687
-2.6841 -7.2332 -1.9976 0.9686
-2.0295 -7.4480 -1.9987 0.9686
-1.3578 -7.6038 -1.9999 0.9686
-0.6746 -7.6991 -2.0011 0.9686
1.3902 -7.6163 -2.0046 0.9685
2.0652 -7.4662 -2.0057 0.9685
2.7244 -7.2562 -2.0068 0.9685
3.3625 -6.9879 -2.0079 0.9685
5.6039 -5.3804 -2.0114 0.9684
6.0636 -4.8608 -2.0122 0.9684
6.4749 -4.3020 -2.0128 0.9684
6.8346 -3.7083 -2.0133 0.9684
7.1397 -3.0845 -2.0137 0.9684
7.5762 -1.7674 -2.0143 0.9684
7.7702 -0.3931 -2.0144 0.9684
7.7739 0.3015 -2.0143 0.9684
7.5947 1.6775 -2.0138 0.9684
7.1726 2.9989 -2.0129 0.9684
6.8744 3.6256 -2.0123 0.9684
6.1164 4.7858 -2.0108 0.9684
5.6628 5.3101 -2.0100 0.9684
3.4414 6.9412 -2.0059 0.9685
2.8044 7.2097 -2.0030 0.9685
2.1451 7.4137 -1.9983 0.9686
-0.5709 7.5371 -1.9571 0.9693
-1.2531 7.5296 -1.9764 0.9690
-2.5922 7.2463 -1.9926 0.9687
-3.2313 6.9930 -1.9946 0.9687
-4.4182 6.3015 -1.9926 0.9687
-4.9605 5.8798 -1.9918 0.9687
-5.4630 5.4117 -1.9910 0.9687
-6.3334 4.3521 -1.9897 0.9687
-7.6612 0.5077 -1.9880 0.9688
-7.6762 -0.1776 -1.9880 0.9688
-7.5242 -1.5390 -1.9885 0.9688
-7.3584 -2.2044 -1.9889 0.9688
-6.1304 -4.6442 -1.9913 0.9687
-5.2122 -5.6645 -1.9930 0.9687
-4.6884 -6.1097 -1.9940 0.9687
-3.5320 -6.8527 -1.9961 0.9686
-2.9083 -7.1444 -1.9972 0.9686
-2.2607 -7.3795 -1.9983 0.9686
-1.5944 -7.5561 -1.9995 0.9686
-0.2268 -7.7283 -2.0018 0.9686
0.4637 -7.7222 -2.0030 0.9685
1.1513 -7.6545 -2.0042 0.9685
2.4958 -7.3364 -2.0064 0.9685
3.1419 -7.0883 -2.0075 0.9685
3.7635 -6.7832 -2.0085 0.9685
5.4323 -5.5521 -2.0112 0.9684
5.9080 -5.0474 -2.0119 0.9684
6.3367 -4.5017 -2.0126 0.9684
7.0393 -3.3059 -2.0136 0.9684
7.3074 -2.6653 -2.0140 0.9684
7.7541 -0.6358 -2.0144 0.9684
7.7428 0.7520 -2.0142 0.9684
7.2634 2.7735 -2.0131 0.9684
6.6510 4.0175 -2.0119 0.9684
5.8269 5.1313 -2.0103 0.9684
5.3435 5.6281 -2.0094 0.9684
4.8179 6.0794 -2.0084 0.9685
3.6573 6.8315 -2.0063 0.9685
1.7091 7.5162 -1.9957 0.9687
0.3394 7.5428 -1.9549 0.9693
-0.3346 7.5391 -1.9539 0.9693
-2.3635 7.3206 -1.9918 0.9687
-3.6305 6.7915 -1.9939 0.9687
-4.2198 6.4375 -1.9930 0.9687
-4.7750 6.0328 -1.9921 0.9687
-6.1949 4.5483 -1.9899 0.9687
-7.1730 2.7440 -1.9885 0.9688
-7.5447 1.4256 -1.9880 0.9688
-7.6534 -0.6228 -1.9881 0.9688
-7.2192 -2.6281 -1.9892 0.9688
-6.6412 -3.8713 -1.9903 0.9687
-6.2717 -4.4498 -1.9911 0.9687
-5.3858 -5.4979 -1.9927 0.9687
-4.8762 -5.9592 -1.9937 0.9687
-3.1295 -7.0486 -1.9968 0.9686
-1.8294 -7.5011 -1.9991 0.9686
-1.1537 -7.6388 -2.0003 0.9686
1.5942 -7.5776 -2.0049 0.9685
2.9184 -7.1817 -2.0071 0.9685
3.5491 -6.8963 -2.0082 0.9685
4.7224 -6.1618 -2.0101 0.9684
5.7467 -5.2288 -2.0117 0.9684
6.9321 -3.5240 -2.0134 0.9684
7.2202 -2.8922 -2.0138 0.9684
7.7304 -0.8777 -2.0144 0.9684
7.6855 1.2000 -2.0140 0.9684
7.0890 3.1898 -2.0127 0.9684
6.7741 3.8082 -2.0121 0.9684
6.4052 4.3957 -2.0114 0.9684
5.9852 4.9475 -2.0106 0.9684
5.0064 5.9268 -2.0088 0.9685
4.4556 6.3466 -2.0078 0.9685
3.2535 7.0297 -2.0056 0.9685
1.9444 7.4640 -1.9971 0.9686
1.2602 7.5435 -1.9802 0.9689
-0.7744 7.5352 -1.9613 0.9692
-1.4610 7.5268 -1.9852 0.9688
-2.1328 7.3881 -1.9910 0.9687
-3.4171 6.9028 -1.9943 0.9687
-4.0172 6.5673 -1.9933 0.9687
-5.1157 5.7440 -1.9915 0.9687
-5.6055 5.2627 -1.9908 0.9687
-6.4472 4.1804 -1.9895 0.9687
-7.0842 2.9670 -1.9886 0.9688
-7.3194 2.3229 -1.9883 0.9688
-7.6145 0.9853 -1.9880 0.9688
-7.6721 0.3022 -1.9880 0.9688
-7.6049 -1.0659 -1.9883 0.9688
-7.2971 -2.4011 -1.9890 0.9688
-7.0557 -3.0431 -1.9895 0.9687
-5.0592 -5.8029 -1.9933 0.9687
-4.5236 -6.2341 -1.9943 0.9687
-3.9516 -6.6162 -1.9953 0.9687
-0.7088 -7.6958 -2.0010 0.9686
-0.0195 -7.7329 -2.0022 0.9686
0.6707 -7.7084 -2.0034 0.9685
1.3563 -7.6222 -2.0045 0.9685
3.3313 -7.0026 -2.0078 0.9685
5.0734 -5.8790 -2.0106 0.9684
6.0418 -4.8877 -2.0121 0.9684
6.4557 -4.3306 -2.0127 0.9684
6.8180 -3.7385 -2.0133 0.9684
7.6992 -1.1188 -2.0144 0.9684
7.7683 -0.4276 -2.0144 0.9684
7.6022 1.6438 -2.0138 0.9684
7.4238 2.3148 -2.0134 0.9684
6.5402 4.1939 -2.0116 0.9684
6.1377 4.7587 -2.0109 0.9684
5.6864 5.2850 -2.0100 0.9684
4.6525 6.2054 -2.0081 0.9685
4.0784 6.5922 -2.0071 0.9685
2.8367 7.1981 -2.0032 0.9685
1.5037 7.5428 -1.9914 0.9687
-0.5373 7.5374 -1.9565 0.9693
-1.2189 7.5300 -1.9750 0.9690
-3.8107 6.6907 -1.9936 0.9687
-4.3902 6.3212 -1.9927 0.9687
-4.9344 5.9019 -1.9918 0.9687
-5.9001 4.9275 -1.9903 0.9687
-7.2436 2.5506 -1.9884 0.9688
-7.4413 1.8941 -1.9881 0.9688
-7.6588 0.5418 -1.9880 0.9688
-7.6769 -0.1435 -1.9880 0.9688
-7.5309 -1.5056 -1.9885 0.9688
-7.3680 -2.1717 -1.9889 0.9688
-7.1467 -2.8209 -1.9893 0.9688
-6.5357 -4.0483 -1.9906 0.9687
-5.7169 -5.1492 -1.9921 0.9687
-5.2372 -5.6411 -1.9930 0.9687
-4.1556 -6.4883 -1.9950 0.9687
-0.9487 -7.6683 -2.0006 0.9686
3.7333 -6.7997 -2.0085 0.9685
4.3270 -6.4427 -2.0094 0.9684
6.6973 -3.9494 -2.0131 0.9684
7.0245 -3.3371 -2.0136 0.9684
7.5080 -2.0366 -2.0142 0.9684
7.6603 -1.3588 -2.0144 0.9684
7.6503 1.4055 -2.0139 0.9684
7.4930 2.0819 -2.0136 0.9684
6.6689 3.9880 -2.0119 0.9684
4.2832 6.4628 -2.0075 0.9685
2.4104 7.3389 -2.0000 0.9686
1.7426 7.5092 -1.9959 0.9687
0.3729 7.5429 -1.9554 0.9693
-0.9789 7.5330 -1.9668 0.9691
-3.6004 6.8077 -1.9940 0.9687
-4.1912 6.4563 -1.9930 0.9687
-5.2672 5.6041 -1.9913 0.9687
-5.7439 5.1101 -1.9906 0.9687
-6.1748 4.5758 -1.9899 0.9687
-6.8859 3.4041 -1.9889 0.9688
-7.1608 2.7759 -1.9885 0.9688
-7.3788 2.1258 -1.9882 0.9688
-7.6775 0.0964 -1.9880 0.9688
-7.6560 -0.5888 -1.9881 0.9688
-7.4318 -1.9403 -1.9887 0.9688
-6.6582 -3.8417 -1.9903 0.9687
-4.3556 -6.3541 -1.9946 0.9687
-3.7734 -6.7208 -1.9957 0.9687
-3.1607 -7.0344 -1.9967 0.9686
-2.5220 -7.2924 -1.9979 0.9686
-1.8626 -7.4926 -1.9990 0.9686
-1.1876 -7.6334 -2.0002 0.9686
-0.5023 -7.7134 -2.0014 0.9686
1.5604 -7.5844 -2.0049 0.9685
2.8864 -7.1944 -2.0071 0.9685
3.5184 -6.9118 -2.0081 0.9685
4.6949 -6.1826 -2.0100 0.9684
5.2299 -5.7416 -2.0109 0.9684
7.6140 -1.5975 -2.0143 0.9684
7.7650 0.4753 -2.0143 0.9684
7.1032 3.1583 -2.0127 0.9684
6.4247 4.3672 -2.0114 0.9684
5.5420 5.4348 -2.0098 0.9684
4.4838 6.3269 -2.0078 0.9685
3.8996 6.6981 -2.0068 0.9685
2.6408 7.2660 -2.0017 0.9686
-0.0653 7.5409 -1.9525 0.9693
-2.7546 7.1890 -1.9933 0.9687
-4.5575 6.2004 -1.9924 0.9687
-5.0902 5.7667 -1.9916 0.9687
-6.0294 4.7671 -1.9901 0.9687
-7.3091 2.3554 -1.9883 0.9688
-7.4892 1.6939 -1.9881 0.9688
-7.6101 1.0191 -1.9880 0.9688
-7.6704 -0.3492 -1.9881 0.9688
-7.6095 -1.0322 -1.9883 0.9688
-7.0690 -3.0117 -1.9895 0.9687
-6.0256 -4.7807 -1.9915 0.9687
-5.0848 -5.7803 -1.9933 0.9687
-3.3783 -6.9309 -1.9964 0.9686
2.6597 -7.2797 -2.0067 0.9685
3.9148 -6.6982 -2.0088 0.9685
4.4987 -6.3253 -2.0097 0.9684
6.0199 -4.9144 -2.0121 0.9684
6.8012 -3.7687 -2.0133 0.9684
7.1119 -3.1477 -2.0137 0.9684
7.5601 -1.8346 -2.0143 0.9684
7.6941 -1.1530 -2.0144 0.9684
7.7664 -0.4621 -2.0144 0.9684
7.6094 1.6100 -2.0138 0.9684
6.5589 4.1649 -2.0117 0.9684
6.1589 4.7315 -2.0109 0.9684
2.8690 7.1863 -2.0035 0.9685
2.2114 7.3959 -1.9987 0.9686
-0.5037 7.5377 -1.9560 0.9693
-2.5274 7.2681 -1.9924 0.9687
-4.3622 6.3408 -1.9927 0.9687
-4.9082 5.9238 -1.9919 0.9687
-5.8782 4.9537 -1.9903 0.9687
-6.2946 4.4083 -1.9897 0.9687
-6.6609 3.8283 -1.9892 0.9688
-6.9743 3.2181 -1.9887 0.9688
-7.4329 1.9272 -1.9881 0.9688
-7.5746 1.2564 -1.9880 0.9688
-7.6563 0.5758 -1.9880 0.9688
-7.6774 -0.1094 -1.9880 0.9688
-7.6377 -0.7938 -1.9882 0.9688
-7.1590 -2.7891 -1.9893 0.9688
-6.8837 -3.4175 -1.9899 0.9687
-6.5535 -4.0192 -1.9905 0.9687
-6.1712 -4.5894 -1.9913 0.9687
-5.7396 -5.1236 -1.9921 0.9687
-4.1843 -6.4696 -1.9949 0.9687
-2.9715 -7.1178 -1.9971 0.9686
-2.3261 -7.3587 -1.9982 0.9686
-0.9827 -7.6638 -2.0006 0.9686
0.3951 -7.7256 -2.0029 0.9685
2.4304 -7.3579 -2.0063 0.9685
4.2982 -6.4617 -2.0094 0.9684
4.8596 -6.0553 -2.0103 0.9684
5.8627 -5.0995 -2.0118 0.9684
7.6542 -1.3929 -2.0144 0.9684
7.7493 0.6832 -2.0142 0.9684
7.5023 2.0486 -2.0136 0.9684
7.0154 3.3473 -2.0126 0.9684
6.6867 3.9584 -2.0119 0.9684
5.8724 5.0796 -2.0104 0.9684
5.3936 5.5806 -2.0095 0.9684
3.0951 7.0998 -2.0053 0.9685
2.4433 7.3290 -2.0003 0.9686
1.7762 7.5021 -1.9961 0.9686
0.4065 7.5430 -1.9559 0.9693
-0.2675 7.5396 -1.9534 0.9693
-1.6328 7.5098 -1.9898 0.9687
-2.2981 7.3405 -1.9915 0.9687
-3.5702 6.8238 -1.9940 0.9687
-4.7214 6.0752 -1.9922 0.9687
-5.2423 5.6276 -1.9913 0.9687
-7.3693 2.1586 -1.9882 0.9688
-7.5318 1.4925 -1.9880 0.9688
-7.4402 -1.9073 -1.9887 0.9688
-7.2420 -2.5638 -1.9891 0.9688
-6.6751 -3.8120 -1.9903 0.9687
-5.4341 -5.4496 -1.9926 0.9687
-3.1918 -7.0201 -1.9967 0.9686
-2.5543 -7.2810 -1.9978 0.9686
-0.5366 -7.7109 -2.0013 0.9686
3.4875 -6.9272 -2.0081 0.9685
4.6673 -6.2032 -2.0100 0.9684
6.5514 -4.1855 -2.0129 0.9684
6.9003 -3.5854 -2.0134 0.9684
7.1941 -2.9562 -2.0138 0.9684
7.6068 -1.6313 -2.0143 0.9684
7.7223 -0.9464 -2.0144 0.9684
7.7759 -0.2538 -2.0144 0.9684
7.7671 0.4408 -2.0143 0.9684
7.6960 1.1317 -2.0141 0.9684
7.5631 1.8133 -2.0137 0.9684
7.3697 2.4801 -2.0133 0.9684
7.1173 3.1267 -2.0128 0.9684
6.8079 3.7479 -2.0122 0.9684
6.0292 4.8943 -2.0107 0.9684
3.9294 6.6809 -2.0068 0.9685
3.3160 7.0010 -2.0057 0.9685
2.6733 7.2551 -2.0019 0.9686
2.0110 7.4479 -1.9975 0.9686
-0.7069 7.5358 -1.9597 0.9692
-1.3919 7.5277 -1.9821 0.9689
-2.0669 7.4061 -1.9908 0.9687
-2.7224 7.2007 -1.9932 0.9687
-5.0646 5.7894 -1.9916 0.9687
-7.0576 3.0299 -1.9886 0.9688
-7.4817 1.7272 -1.9881 0.9688
-7.6690 0.3703 -1.9880 0.9688
-7.0822 -2.9803 -1.9895 0.9688
-6.4441 -4.1939 -1.9907 0.9687
-5.6009 -5.2763 -1.9923 0.9687
-5.1103 -5.7575 -1.9932 0.9687
-4.0100 -6.5805 -1.9952 0.9687
-3.4089 -6.9156 -1.9963 0.9686
-2.1283 -7.4197 -1.9986 0.9686
-1.4589 -7.5844 -1.9997 0.9686
0.6021 -7.7136 -2.0033 0.9685
1.9654 -7.4924 -2.0056 0.9685
2.6272 -7.2913 -2.0067 0.9685
3.2688 -7.0316 -2.0077 0.9685
-6.9984 -0.6321 -1.9893 0.9712
-6.7766 -1.8661 -1.9898 0.9712
-6.5846 -2.4636 -1.9902 0.9712
-6.3402 -3.0418 -1.9907 0.9712
-6.0454 -3.5963 -1.9913 0.9712
-3.9072 -5.8661 -1.9953 0.9711
-2.2181 -6.7013 -1.9983 0.9711
-1.6124 -6.8760 -1.9994 0.9711
-0.9932 -6.9962 -2.0004 0.9711
-0.3654 -7.0607 -2.0015 0.9710
0.2660 -7.0690 -2.0026 0.9710
0.8959 -7.0208 -2.0037 0.9710
2.1313 -6.7569 -2.0057 0.9710
2.7268 -6.5431 -2.0067 0.9710
4.3676 -5.5951 -2.0094 0.9709
4.8511 -5.1852 -2.0101 0.9709
5.2960 -4.7335 -2.0108 0.9709
5.6989 -4.2435 -2.0114 0.9709
6.0562 -3.7193 -2.0120 0.9709
6.3652 -3.1650 -2.0124 0.9709
6.8284 -1.9842 -2.0130 0.9709
6.9787 -1.3674 -2.0132 0.9709
7.0862 -0.1053 -2.0063 0.9710
7.0914 0.5290 -2.0131 0.9709
7.0152 1.1592 -2.0129 0.9709
6.1614 3.5361 -2.0111 0.9709
5.8195 4.0703 -2.0104 0.9709
5.4313 4.5714 -2.0097 0.9709
4.9999 5.0356 -2.0089 0.9709
4.0220 5.8387 -2.0071 0.9710
1.7228 6.8626 -2.0030 0.9710
0.4755 7.0519 -2.0009 0.9710
-0.7842 7.0167 -1.9987 0.9711
-1.4062 6.9151 -1.9977 0.9711
-4.2448 5.6166 -1.9930 0.9712
-5.9332 3.7726 -1.9904 0.9712
-6.5064 2.6573 -1.9896 0.9712
-6.7166 2.0661 -1.9893 0.9712
-6.9759 0.8397 -1.9891 0.9712
-6.9504 -1.0372 -1.9894 0.9712
-6.4315 -2.8419 -1.9906 0.9712
-6.1541 -3.4052 -1.9911 0.9712
-5.4548 -4.4475 -1.9925 0.9712
-4.5815 -5.3503 -1.9941 0.9711
-4.0879 -5.7402 -1.9950 0.9711
-3.5613 -6.0848 -1.9959 0.9711
0.6760 -7.0441 -2.0033 0.9710
1.3023 -6.9594 -2.0043 0.9710
4.6860 -5.3335 -2.0099 0.9709
5.5629 -4.4191 -2.0112 0.9709
5.9366 -3.9063 -2.0118 0.9709
7.1041 -0.3278 -2.0133 0.9709
6.5444 2.7705 -2.0119 0.9709
6.2695 3.3422 -2.0113 0.9709
5.5722 4.4000 -2.0100 0.9709
5.1555 4.8776 -2.0092 0.9709
4.6979 5.3158 -2.0083 0.9709
4.2032 5.7111 -2.0074 0.9710
3.6753 6.0603 -2.0065 0.9710
2.5375 6.6103 -2.0045 0.9710
1.3212 6.9486 -2.0023 0.9710
0.6958 7.0349 -2.0013 0.9710
0.0655 7.0651 -2.0002 0.9711
-1.8045 6.8196 -1.9970 0.9711
-2.4044 6.6282 -1.9960 0.9711
-4.5624 5.3595 -1.9925 0.9712
-5.0205 4.9294 -1.9918 0.9712
-5.8129 3.9565 -1.9906 0.9712
-7.0129 0.4335 -1.9891 0.9712
-6.8791 -1.4389 -1.9896 0.9712
-6.7246 -2.0472 -1.9899 0.9712
-6.2569 -3.2109 -1.9909 0.9712
-5.9473 -3.7574 -1.9915 0.9712
-5.5904 -4.2743 -1.9922 0.9712
-3.7491 -5.9696 -1.9956 0.9711
-3.2032 -6.2833 -1.9966 0.9711
-2.6314 -6.5473 -1.9976 0.9711
-2.0379 -6.7594 -1.9986 0.9711
0.4555 -7.0604 -2.0029 0.9710
1.7045 -6.8744 -2.0050 0.9710
2.3120 -6.6983 -2.0060 0.9710
2.9017 -6.4685 -2.0070 0.9710
3.4687 -6.1868 -2.0079 0.9709
4.0084 -5.8553 -2.0088 0.9709
5.4215 -4.5902 -2.0110 0.9709
5.8110 -4.0896 -2.0116 0.9709
6.1542 -3.5558 -2.0121 0.9709
6.4482 -2.9934 -2.0125 0.9709
6.6905 -2.4067 -2.0129 0.9709
6.8793 -1.8005 -2.0131 0.9709
7.0130 -1.1798 -2.0132 0.9709
7.0745 0.7189 -2.0131 0.9709
6.0638 3.6997 -2.0109 0.9709
5.3061 4.7148 -2.0095 0.9709
4.3803 5.5778 -2.0077 0.9709
1.5379 6.9052 -2.0027 0.9710
0.2863 7.0610 -2.0006 0.9710
-0.9718 6.9920 -1.9984 0.9711
-1.5908 6.8739 -1.9974 0.9711
-2.1964 6.7012 -1.9964 0.9711
-2.7841 6.4755 -1.9954 0.9711
-3.8868 5.8725 -1.9936 0.9711
-4.3933 5.5001 -1.9928 0.9712
-5.2969 4.6287 -1.9914 0.9712
-6.5750 2.4818 -1.9895 0.9712
-6.7693 1.8852 -1.9893 0.9712
-7.0263 0.0258 -1.9891 0.9712
-7.0011 -0.6010 -1.9893 0.9712
-6.9204 -1.2232 -1.9895 0.9712
-6.5954 -2.4343 -1.9902 0.9712
-6.3535 -3.0136 -1.9907 0.9712
-6.0612 -3.5693 -1.9913 0.9712
-5.7205 -4.0971 -1.9919 0.9712
-4.9053 -5.0522 -1.9935 0.9712
-2.2478 -6.6912 -1.9983 0.9711
0.2346 -7.0699 -2.0025 0.9710
1.4886 -6.9230 -2.0047 0.9710
3.8229 -5.9768 -2.0085 0.9709
5.6799 -4.2687 -2.0114 0.9709
6.0396 -3.7461 -2.0119 0.9709
6.8195 -2.0146 -2.0130 0.9709
7.0698 -0.7709 -2.0133 0.9709
6.8907 1.7495 -2.0126 0.9709
6.4673 2.9447 -2.0117 0.9709
5.0223 5.0135 -2.0089 0.9709
3.5110 6.1558 -2.0062 0.9710
1.7533 6.8550 -2.0031 0.9710
-0.1239 7.0632 -1.9999 0.9711
-0.7530 7.0203 -1.9988 0.9711
-3.7020 5.9920 -1.9939 0.9711
-4.7039 5.2347 -1.9923 0.9712
-5.5555 4.3127 -1.9910 0.9712
-6.4946 2.6862 -1.9896 0.9712
-6.7074 2.0959 -1.9894 0.9712
-6.9721 0.8707 -1.9891 0.9712
-7.0163 -0.3820 -1.9892 0.9712
-6.9549 -1.0064 -1.9894 0.9712
-6.6677 -2.2268 -1.9901 0.9712
-6.4440 -2.8133 -1.9905 0.9712
-5.8451 -3.9159 -1.9917 0.9712
-5.4744 -4.4232 -1.9924 0.9712
-4.6052 -5.3298 -1.9940 0.9711
-3.5882 -6.0688 -1.9959 0.9711
-3.0341 -6.3678 -1.9969 0.9711
-2.4553 -6.6165 -1.9979 0.9711
-1.8563 -6.8127 -1.9989 0.9711
-1.2419 -6.9548 -2.0000 0.9711
-0.6170 -7.0417 -2.0011 0.9710
0.6447 -7.0468 -2.0032 0.9710
1.8885 -6.8273 -2.0053 0.9710
3.6337 -6.0924 -2.0082 0.9709
4.6622 -5.3542 -2.0098 0.9709
5.5431 -4.4436 -2.0112 0.9709
5.9191 -3.9326 -2.0118 0.9709
6.5264 -2.8196 -2.0126 0.9709
6.9253 -1.6155 -2.0131 0.9709
7.1026 -0.3594 -2.0133 0.9709
6.9424 1.5334 -2.0127 0.9709
6.5567 2.7414 -2.0119 0.9709
5.9618 3.8605 -2.0107 0.9709
5.1772 4.8548 -2.0092 0.9709
4.2286 5.6925 -2.0075 0.9710
3.7023 6.0441 -2.0065 0.9710
3.1468 6.3471 -2.0055 0.9710
1.3521 6.9428 -2.0024 0.9710
0.7270 7.0319 -2.0013 0.9710
0.0969 7.0650 -2.0002 0.9711
-1.1587 6.9623 -1.9981 0.9711
-2.9562 6.3976 -1.9951 0.9711
-4.0423 5.7655 -1.9934 0.9712
-4.9986 4.9517 -1.9918 0.9712
-5.4186 4.4847 -1.9912 0.9712
-5.7953 3.9824 -1.9906 0.9712
-6.4079 2.8880 -1.9898 0.9712
-6.6389 2.3046 -1.9894 0.9712
-6.8173 1.7031 -1.9892 0.9712
-7.0246 -0.1625 -1.9891 0.9712
-6.9827 -0.7885 -1.9893 0.9712
-6.8854 -1.4084 -1.9896 0.9712
-6.5282 -2.6104 -1.9904 0.9712
-6.2710 -3.1831 -1.9909 0.9712
-5.2098 -4.7346 -1.9929 0.9712
-3.7754 -5.9527 -1.9955 0.9711
-3.2310 -6.2688 -1.9965 0.9711
-0.2074 -7.0681 -2.0018 0.9710
1.0529 -6.9999 -2.0039 0.9710
1.6739 -6.8817 -2.0050 0.9710
2.2822 -6.7084 -2.0060 0.9710
2.8728 -6.4812 -2.0070 0.9710
4.4920 -5.4965 -2.0096 0.9709
4.9662 -5.0758 -2.0103 0.9709
5.7927 -4.1153 -2.0116 0.9709
6.1383 -3.5831 -2.0121 0.9709
6.8712 -1.8311 -2.0131 0.9709
7.0777 0.6874 -2.0131 0.9709
6.6398 2.5354 -2.0120 0.9709
6.3855 3.1167 -2.0115 0.9709
6.0802 3.6728 -2.0109 0.9709
4.8855 5.1456 -2.0087 0.9709
2.1789 6.7346 -2.0038 0.9710
1.5686 6.8985 -2.0028 0.9710
0.9466 7.0071 -2.0017 0.9710
-2.1667 6.7111 -1.9964 0.9711
-2.7553 6.4879 -1.9954 0.9711
-3.3215 6.2134 -1.9945 0.9711
-3.8608 5.8898 -1.9937 0.9711
-4.3689 5.5197 -1.9928 0.9712
-5.2764 4.6523 -1.9914 0.9712
-6.0157 3.6387 -1.9903 0.9712
-6.3149 3.0870 -1.9899 0.9712
-6.7609 1.9153 -1.9893 0.9712
-6.9043 1.3046 -1.9891 0.9712
-6.9257 -1.1925 -1.9895 0.9712
-6.7928 -1.8057 -1.9898 0.9712
-6.6060 -2.4049 -1.9902 0.9712
-6.0769 -3.5423 -1.9913 0.9712
-5.3545 -4.5688 -1.9926 0.9712
-4.9276 -5.0302 -1.9934 0.9712
-2.8627 -6.4479 -1.9972 0.9711
0.8335 -7.0281 -2.0036 0.9710
1.4578 -6.9294 -2.0046 0.9710
2.6685 -6.5667 -2.0066 0.9710
3.7963 -5.9936 -2.0085 0.9709
4.8046 -5.2279 -2.0101 0.9709
5.2536 -4.7802 -2.0108 0.9709
6.0228 -3.7728 -2.0119 0.9709
6.3368 -3.2213 -2.0124 0.9709
6.8104 -2.0448 -2.0130 0.9709
7.0861 -0.1683 -2.0066 0.9710
7.0959 0.4659 -2.0131 0.9709
6.8984 1.7189 -2.0126 0.9709
6.7163 2.3269 -2.0122 0.9709
6.4804 2.9159 -2.0117 0.9709
6.1927 3.4813 -2.0111 0.9709
5.8556 4.0185 -2.0105 0.9709
5.4719 4.5232 -2.0098 0.9709
3.5384 6.1403 -2.0062 0.9710
2.9751 6.4282 -2.0052 0.9710
0.5382 7.0478 -2.0010 0.9710
-0.7219 7.0237 -1.9988 0.9711
-1.3447 6.9277 -1.9978 0.9711
-4.6807 5.2556 -1.9923 0.9712
-5.1290 4.8155 -1.9916 0.9712
-5.8996 3.8253 -1.9905 0.9712
-6.2158 3.2831 -1.9900 0.9712
-6.9593 -0.9754 -1.9894 0.9712
-6.8455 -1.5925 -1.9897 0.9712
-6.6774 -2.1972 -1.9900 0.9712
-6.1839 -3.3503 -1.9910 0.9712
-5.4939 -4.3987 -1.9924 0.9712
-5.0817 -4.8731 -1.9932 0.9712
-4.6287 -5.3092 -1.9940 0.9711
-4.1385 -5.7034 -1.9949 0.9711
-3.6150 -6.0527 -1.9958 0.9711
-1.2728 -6.9490 -2.0000 0.9711
-0.6482 -7.0387 -2.0010 0.9710
1.2403 -6.9703 -2.0042 0.9710
1.8580 -6.8354 -2.0053 0.9710
2.4616 -6.6458 -2.0063 0.9710
3.0460 -6.4028 -2.0072 0.9710
3.6066 -6.1083 -2.0081 0.9709
4.1388 -5.7648 -2.0090 0.9709
5.1011 -4.9414 -2.0105 0.9709
5.5233 -4.4682 -2.0112 0.9709
5.9014 -3.9588 -2.0117 0.9709
6.7429 -2.2565 -2.0129 0.9709
7.1072 0.2440 -2.0132 0.9709
6.7862 2.1160 -2.0124 0.9709
6.2991 3.2865 -2.0114 0.9709
4.7452 5.2741 -2.0084 0.9709
4.2539 5.6738 -2.0075 0.9710
3.7292 6.0277 -2.0066 0.9710
1.9972 6.7896 -2.0035 0.9710
1.3829 6.9369 -2.0024 0.9710
0.7583 7.0288 -2.0014 0.9710
-0.5021 7.0442 -1.9992 0.9711
-2.9278 6.4108 -1.9952 0.9711
-4.0168 5.7835 -1.9934 0.9712
-5.3987 4.5088 -1.9912 0.9712
-6.1106 3.4759 -1.9902 0.9712
-6.3950 2.9165 -1.9898 0.9712
-7.0087 0.4958 -1.9891 0.9712
-7.0252 -0.1313 -1.9891 0.9712
-6.9861 -0.7575 -1.9893 0.9712
-6.8915 -1.3777 -1.9896 0.9712
-6.7423 -1.9873 -1.9899 0.9712
-6.2850 -3.1552 -1.9908 0.9712
-5.9803 -3.7043 -1.9914 0.9712
-5.6280 -4.2244 -1.9921 0.9712
-5.2307 -4.7113 -1.9929 0.9712
-3.8018 -5.9358 -1.9955 0.9711
-2.6893 -6.5233 -1.9975 0.9711
-1.4890 -6.9046 -1.9996 0.9711
-0.8677 -7.0137 -2.0007 0.9710
-0.2388 -7.0669 -2.0017 0.9710
0.3927 -7.0638 -2.0028 0.9710
3.4134 -6.2171 -2.0078 0.9709
3.9561 -5.8904 -2.0087 0.9709
4.9436 -5.0978 -2.0103 0.9709
5.3804 -4.6381 -2.0110 0.9709
5.7743 -4.1409 -2.0116 0.9709
6.8630 -1.8616 -2.0131 0.9709
7.0853 -0.6126 -2.0133 0.9709
7.1008 0.0218 -2.0102 0.9709
7.0807 0.6560 -2.0131 0.9709
6.9931 1.2848 -2.0128 0.9709
6.6510 2.5059 -2.0121 0.9709
6.3994 3.0883 -2.0116 0.9709
6.0966 3.6458 -2.0110 0.9709
5.7452 4.1736 -2.0103 0.9709
5.3480 4.6677 -2.0095 0.9709
4.9084 5.1240 -2.0087 0.9709
4.4299 5.5390 -2.0078 0.9709
3.9163 5.9093 -2.0069 0.9710
2.2088 6.7251 -2.0039 0.9710
0.3490 7.0585 -2.0007 0.9710
-0.9097 7.0007 -1.9985 0.9711
-1.5297 6.8881 -1.9975 0.9711
-2.7266 6.5002 -1.9955 0.9711
-3.8346 5.9070 -1.9937 0.9711
-4.8194 5.1277 -1.9921 0.9712
-5.2557 4.6758 -1.9915 0.9712
-6.5528 2.5402 -1.9896 0.9712
-6.8984 1.3352 -1.9891 0.9712
-6.9898 0.7146 -1.9891 0.9712
-6.3799 -2.9569 -1.9907 0.9712
-6.0925 -3.5152 -1.9912 0.9712
-5.7565 -4.0459 -1.9919 0.9712
-5.3746 -4.5449 -1.9926 0.9712
-4.4853 -5.4320 -1.9943 0.9711
-2.3070 -6.6706 -1.9981 0.9711
-0.4594 -7.0547 -2.0014 0.9710
0.1718 -7.0713 -2.0024 0.9710
0.8022 -7.0316 -2.0035 0.9710
3.2170 -6.3197 -2.0075 0.9710
3.7695 -6.0103 -2.0084 0.9709
4.2924 -5.6524 -2.0092 0.9709
4.7813 -5.2491 -2.0100 0.9709
5.6416 -4.3189 -2.0114 0.9709
6.3223 -3.2494 -2.0124 0.9709
7.0626 -0.8337 -2.0133 0.9709
7.0979 0.4344 -2.0131 0.9709
7.0302 1.0657 -2.0129 0.9709
6.9061 1.6882 -2.0126 0.9709
6.7266 2.2970 -2.0122 0.9709
6.2082 3.4538 -2.0112 0.9709
5.8735 3.9925 -2.0105 0.9709
5.0668 4.9689 -2.0090 0.9709
4.6015 5.3987 -2.0082 0.9709
3.5657 6.1246 -2.0063 0.9710
2.4183 6.6540 -2.0042 0.9710
-0.0612 7.0644 -2.0000 0.9711
-0.6906 7.0270 -1.9989 0.9711
-1.3140 6.9338 -1.9978 0.9711
-4.6574 5.2764 -1.9924 0.9712
-5.8826 3.8515 -1.9905 0.9712
-6.6886 2.1555 -1.9894 0.9712
-7.0195 0.3077 -1.9891 0.9712
-7.0193 -0.3196 -1.9892 0.9712
-6.9635 -0.9445 -1.9894 0.9712
-6.8525 -1.5621 -1.9896 0.9712
-6.6871 -2.1675 -1.9900 0.9712
-6.1987 -3.3228 -1.9910 0.9712
-5.8794 -3.8637 -1.9916 0.9712
-5.1032 -4.8504 -1.9931 0.9712
-4.6521 -5.2884 -1.9939 0.9711
-3.0904 -6.3403 -1.9968 0.9711
-0.6795 -7.0355 -2.0010 0.9710
-0.0493 -7.0719 -2.0021 0.9710
0.5820 -7.0519 -2.0031 0.9710
1.2093 -6.9755 -2.0042 0.9710
2.4319 -6.6565 -2.0062 0.9710
3.5793 -6.1242 -2.0081 0.9709
5.0790 -4.9639 -2.0105 0.9709
5.8837 -3.9850 -2.0117 0.9709
6.9106 -1.6770 -2.0131 0.9709
7.0331 -1.0539 -2.0132 0.9709
7.0603 0.8455 -2.0130 0.9709
6.7956 2.0859 -2.0124 0.9709
5.9961 3.8075 -2.0108 0.9709
5.6306 4.3256 -2.0101 0.9709
3.7560 6.0112 -2.0066 0.9710
2.0274 6.7808 -2.0036 0.9710
1.4138 6.9309 -2.0025 0.9710
0.1596 7.0642 -2.0003 0.9711
-0.4708 7.0465 -1.9993 0.9711
-1.7136 6.8436 -1.9972 0.9711
-3.4592 6.1369 -1.9943 0.9711
-3.9911 5.8014 -1.9934 0.9712
-4.4909 5.4201 -1.9926 0.9712
-4.9546 4.9961 -1.9919 0.9712
-6.6183 2.3635 -1.9895 0.9712
-6.8019 1.7636 -1.9892 0.9712
-6.7510 -1.9573 -1.9899 0.9712
-6.5510 -2.5522 -1.9903 0.9712
-6.2988 -3.1271 -1.9908 0.9712
-4.8144 -5.1397 -1.9936 0.9711
-3.8280 -5.9187 -1.9954 0.9711
-3.2864 -6.2396 -1.9964 0.9711
-2.7182 -6.5111 -1.9974 0.9711
-1.5196 -6.8977 -1.9995 0.9711
-0.8988 -7.0095 -2.0006 0.9710
-0.2702 -7.0656 -2.0017 0.9710
0.9906 -7.0086 -2.0038 0.9710
2.2224 -6.7280 -2.0059 0.9710
2.8150 -6.5062 -2.0069 0.9710
3.3857 -6.2320 -2.0078 0.9709
5.3596 -4.6618 -2.0109 0.9709
6.8546 -1.8920 -2.0131 0.9709
7.0825 -0.6441 -2.0133 0.9709
7.1009 -0.0098 -2.0102 0.9709
6.9988 1.2537 -2.0128 0.9709
6.8580 1.8726 -2.0125 0.9709
6.4131 3.0599 -2.0116 0.9709
3.9426 5.8920 -2.0070 0.9710
3.3997 6.2171 -2.0060 0.9710
2.8302 6.4923 -2.0050 0.9710
1.6300 6.8846 -2.0029 0.9710
1.0089 6.9988 -2.0018 0.9710
0.3803 7.0571 -2.0007 0.9710
-0.2505 7.0591 -1.9996 0.9711
-2.1071 6.7304 -1.9965 0.9711
-3.2663 6.2429 -1.9946 0.9711
-4.3199 5.5585 -1.9929 0.9712
-4.7966 5.1491 -1.9922 0.9712
-5.2350 4.6992 -1.9915 0.9712
-5.6316 4.2122 -1.9909 0.9712
-5.9833 3.6921 -1.9904 0.9712
-6.2874 3.1431 -1.9899 0.9712
-6.7437 1.9753 -1.9893 0.9712
-6.8925 1.3658 -1.9891 0.9712
-7.0253 0.1195 -1.9891 0.9712
-6.9359 -1.1308 -1.9894 0.9712
-6.8085 -1.7453 -1.9897 0.9712
-6.3929 -2.9285 -1.9906 0.9712
-4.5093 -5.4120 -1.9942 0.9711
-2.9198 -6.4218 -1.9971 0.9711
-1.7341 -6.8456 -1.9991 0.9711
-1.1172 -6.9767 -2.0002 0.9711
2.0107 -6.7930 -2.0055 0.9710
2.6099 -6.5898 -2.0065 0.9710
4.2671 -5.6713 -2.0092 0.9709
4.7578 -5.2702 -2.0100 0.9709
5.2107 -4.8265 -2.0107 0.9709
5.9889 -3.8261 -2.0119 0.9709
6.3077 -3.2774 -2.0123 0.9709
6.5762 -2.7022 -2.0127 0.9709
6.7919 -2.1052 -2.0130 0.9709
7.0589 -0.8651 -2.0133 0.9709
7.0349 1.0345 -2.0129 0.9709
6.5062 2.8583 -2.0118 0.9709
6.2236 3.4263 -2.0112 0.9709
5.8913 3.9665 -2.0106 0.9709
5.5120 4.4745 -2.0098 0.9709
4.1255 5.7668 -2.0073 0.9710
3.5930 6.1089 -2.0063 0.9710
3.0323 6.4018 -2.0053 0.9710
2.4479 6.6433 -2.0043 0.9710
1.8446 6.8316 -2.0032 0.9710
-1.2832 6.9397 -1.9979 0.9711
-2.4933 6.5947 -1.9959 0.9711
-3.0702 6.3430 -1.9949 0.9711
-3.6220 6.0411 -1.9940 0.9711
-4.1447 5.6916 -1.9932 0.9712
-5.0862 4.8610 -1.9917 0.9712
-5.4978 4.3866 -1.9911 0.9712
-6.4584 2.7726 -1.9897 0.9712
-6.6790 2.1852 -1.9894 0.9712
-6.8466 1.5806 -1.9892 0.9712
-6.9599 0.9635 -1.9891 0.9712
-7.0181 0.3389 -1.9891 0.9712
-7.0206 -0.2884 -1.9892 0.9712
-6.9676 -0.9135 -1.9894 0.9712
-6.6965 -2.1377 -1.9900 0.9712
-5.5326 -4.3496 -1.9923 0.9712
-4.6755 -5.2676 -1.9939 0.9711
-4.1889 -5.6662 -1.9948 0.9711
-3.1185 -6.3263 -1.9967 0.9711
-2.5431 -6.5827 -1.9977 0.9711
-1.9468 -6.7868 -1.9988 0.9711
-1.3344 -6.9371 -1.9998 0.9711
-0.7107 -7.0322 -2.0009 0.9710
-0.0807 -7.0714 -2.0020 0.9710
2.4023 -6.6670 -2.0062 0.9710
-6.2400 -1.7183 -1.9907 0.9733
-5.8378 -2.8008 -1.9916 0.9733
-5.5663 -3.3113 -1.9921 0.9733
-5.2503 -3.7957 -1.9927 0.9733
-4.8925 -4.2503 -1.9934 0.9732
-4.4956 -4.6715 -1.9941 0.9732
-4.0626 -5.0559 -1.9949 0.9732
-3.5970 -5.4004 -1.9958 0.9732
-2.5825 -5.9590 -1.9976 0.9732
-2.0417 -6.1685 -1.9985 0.9732
-1.4841 -6.3291 -1.9995 0.9732
-0.9141 -6.4394 -2.0005 0.9731
0.2448 -6.5058 -2.0025 0.9731
0.8245 -6.4612 -2.0035 0.9731
1.3982 -6.3650 -2.0044 0.9731
2.5092 -6.0208 -2.0063 0.9731
3.5420 -5.4838 -2.0079 0.9730
4.8725 -4.3550 -2.0100 0.9730
5.2430 -3.9041 -2.0106 0.9730
5.8559 -2.9117 -2.0115 0.9730
6.0932 -2.3782 -2.0118 0.9730
6.4201 -1.2579 -2.0122 0.9730
6.5069 -0.6803 -2.0123 0.9730
6.5416 -0.0972 -2.0123 0.9730
6.5238 0.4866 -2.0122 0.9730
6.4537 1.0665 -2.0119 0.9730
6.3320 1.6376 -2.0117 0.9730
6.1595 2.1954 -2.0113 0.9730
4.9972 4.2061 -2.0090 0.9730
4.6004 4.6333 -2.0083 0.9730
4.1672 5.0232 -2.0075 0.9731
3.7009 5.3726 -2.0066 0.9731
2.6850 5.9393 -2.0048 0.9731
2.1436 6.1522 -2.0039 0.9731
1.5855 6.3158 -2.0029 0.9731
-2.4026 6.0287 -1.9961 0.9732
-2.9295 5.7879 -1.9953 0.9732
-3.4326 5.5012 -1.9944 0.9732
-4.3523 4.8003 -1.9930 0.9732
-4.7616 4.3915 -1.9923 0.9733
-5.1328 3.9482 -1.9918 0.9733
