ply
format ascii 1.0
element vertex 1596
property float32 x
property float32 y
property float32 z
property float32 I
end_header
1.1489 3.9196 -2.0035 0.9820
0.7946 4.0057 -2.0032 0.9820
0.4341 4.0600 -2.0028 0.9820
-0.2941 4.0710 -2.0021 0.9820
-1.0124 3.9525 -2.0014 0.9820
-1.3606 3.8458 -2.0010 0.9820
-1.6979 3.7084 -2.0006 0.9820
-2.8856 2.8785 -1.9993 0.9820
-1.1404 0.5188 -0.6146 0.9944
-1.1581 0.2936 -0.5860 0.9947
-1.1963 -0.0235 -0.5869 0.9947
-1.1918 -0.1304 -0.5881 0.9947
-1.1740 -0.2359 -0.5874 0.9947
-3.4600 -2.1478 -1.9976 0.9820
-3.2549 -2.4480 -1.9978 0.9820
-2.1942 -3.4331 -1.9986 0.9820
-1.5498 -3.7695 -1.9992 0.9820
0.5928 -4.0366 -2.0013 0.9820
1.3010 -3.8685 -2.0020 0.9820
2.8466 -2.9298 -2.0038 0.9820
3.3229 -2.3781 -2.0043 0.9820
3.5222 -2.0725 -2.0046 0.9820
3.8352 -1.4140 -2.0051 0.9820
3.9464 -1.0664 -2.0053 0.9820
4.0262 -0.7102 -2.0054 0.9820
4.0737 -0.3483 -2.0055 0.9819
4.0711 0.3811 -2.0057 0.9819
4.0209 0.7427 -2.0057 0.9819
3.9386 1.0984 -2.0057 0.9819
3.6806 1.7806 -2.0056 0.9819
3.3053 2.4060 -2.0054 0.9820
2.8247 2.9544 -2.0050 0.9820
2.2543 3.4085 -2.0045 0.9820
1.9410 3.5955 -2.0043 0.9820
1.2709 3.8820 -2.0036 0.9820
0.5607 4.0446 -2.0030 0.9820
0.1977 4.0778 -2.0026 0.9820
-0.8885 3.9825 -2.0015 0.9820
-1.2399 3.8866 -2.0011 0.9820
-1.5813 3.7599 -2.0008 0.9820
-1.9100 3.6032 -2.0004 0.9820
-2.5190 3.2054 -1.9997 0.9820
-2.7944 2.9674 -1.9994 0.9820
-3.0475 2.7059 -1.9991 0.9820
-3.2762 2.4230 -1.9988 0.9820
-3.4788 2.1208 -1.9985 0.9820
-1.1762 0.2265 -0.5875 0.9947
-1.1960 0.0139 -0.5867 0.9947
-1.1818 -0.1992 -0.5879 0.9947
-1.1582 -0.3036 -0.5873 0.9947
-1.1382 -0.5289 -0.6156 0.9944
-3.5254 -2.0386 -1.9976 0.9820
-3.1075 -2.6329 -1.9979 0.9820
-2.5908 -3.1438 -1.9983 0.9820
-2.3003 -3.3628 -1.9985 0.9820
-1.9915 -3.5550 -1.9988 0.9820
-1.3285 -3.8535 -1.9994 0.9820
-0.9797 -3.9572 -1.9997 0.9820
0.1030 -4.0775 -2.0008 0.9820
1.1795 -3.9070 -2.0019 0.9820
1.5235 -3.7869 -2.0023 0.9820
1.8556 -3.6366 -2.0026 0.9820
2.4730 -3.2501 -2.0033 0.9820
3.0121 -2.7599 -2.0040 0.9820
3.4556 -2.1814 -2.0045 0.9820
3.7891 -1.5331 -2.0050 0.9820
4.0019 -0.8356 -2.0054 0.9820
4.0607 -0.4754 -2.0055 0.9819
4.0810 0.2537 -2.0057 0.9819
4.0421 0.6167 -2.0057 0.9819
3.7345 1.6648 -2.0056 0.9819
3.5709 1.9911 -2.0055 0.9819
3.3789 2.3016 -2.0054 0.9820
3.1599 2.5936 -2.0053 0.9820
2.9157 2.8648 -2.0051 0.9820
2.6483 3.1132 -2.0049 0.9820
2.3598 3.3365 -2.0046 0.9820
1.7289 3.7017 -2.0041 0.9820
1.0434 3.9488 -2.0034 0.9820
0.3250 4.0699 -2.0027 0.9820
-0.0393 4.0819 -2.0024 0.9820
-0.4031 4.0614 -2.0020 0.9820
-1.4632 3.8077 -2.0009 0.9820
-2.1157 3.4858 -2.0002 0.9820
-2.7005 3.0534 -1.9995 0.9820
-2.9616 2.8000 -1.9992 0.9820
-1.1172 0.5951 -0.6209 0.9944
-1.1584 0.3721 -0.5968 0.9946
-1.1673 0.2628 -0.5869 0.9947
-1.1964 0.0513 -0.5874 0.9947
-1.1963 -0.0556 -0.5875 0.9947
-1.1582 -0.3767 -0.5974 0.9946
-1.1461 -0.4896 -0.6113 0.9945
-1.1152 -0.5992 -0.6210 0.9944
-3.1882 -2.5345 -1.9978 0.9820
-1.7820 -3.6649 -1.9990 0.9820
-1.1028 -3.9245 -1.9996 0.9820
-0.7485 -4.0079 -1.9999 0.9820
-0.3881 -4.0594 -2.0003 0.9820
0.3395 -4.0652 -2.0010 0.9820
2.6578 -3.1015 -2.0035 0.9820
3.7392 -1.6507 -2.0049 0.9820
3.8719 -1.3107 -2.0051 0.9820
4.0438 -0.6020 -2.0055 0.9819
4.0816 -0.2389 -2.0056 0.9819
3.9996 0.8503 -2.0057 0.9819
3.9077 1.2036 -2.0057 0.9819
3.0039 2.7724 -2.0051 0.9820
2.4630 3.2613 -2.0047 0.9820
2.1620 3.4676 -2.0044 0.9820
1.8438 3.6461 -2.0042 0.9820
0.4521 4.0580 -2.0029 0.9820
0.0883 4.0814 -2.0025 0.9820
-0.6381 4.0307 -2.0018 0.9820
-0.9949 3.9570 -2.0014 0.9820
-1.3436 3.8518 -2.0010 0.9820
-2.6039 3.1365 -1.9996 0.9820
-2.8728 2.8913 -1.9993 0.9820
-3.1188 2.6231 -1.9990 0.9820
-3.5343 2.0267 -1.9985 0.9820
-1.1392 0.5243 -0.6152 0.9944
-1.1580 0.2990 -0.5867 0.9947
-1.1826 0.1950 -0.5879 0.9947
-1.1961 -0.0182 -0.5868 0.9947
-1.1924 -0.1251 -0.5881 0.9947
-1.1752 -0.2307 -0.5875 0.9947
-1.1590 -0.3372 -0.5921 0.9946
-1.1299 -0.5623 -0.6191 0.9944
-3.2657 -2.4336 -1.9978 0.9820
-2.7819 -2.9756 -1.9981 0.9820
-2.5056 -3.2123 -1.9984 0.9820
-2.2094 -3.4234 -1.9986 0.9820
-1.8955 -3.6073 -1.9989 0.9820
0.2123 -4.0736 -2.0009 0.9820
0.5749 -4.0391 -2.0013 0.9820
0.9330 -3.9725 -2.0016 0.9820
1.2839 -3.8742 -2.0020 0.9820
1.9525 -3.5857 -2.0027 0.9820
3.0852 -2.6783 -2.0040 0.9820
3.5129 -2.0881 -2.0046 0.9820
3.8289 -1.4310 -2.0051 0.9820
3.9417 -1.0839 -2.0052 0.9820
4.0229 -0.7280 -2.0054 0.9820
4.0727 0.3631 -2.0057 0.9819
4.0242 0.7249 -2.0057 0.9819
3.8313 1.4283 -2.0057 0.9819
3.6885 1.7643 -2.0056 0.9819
1.9569 3.5869 -2.0043 0.9820
1.6289 3.7466 -2.0040 0.9820
1.2881 3.8763 -2.0037 0.9820
0.5787 4.0422 -2.0030 0.9820
0.2158 4.0769 -2.0026 0.9820
-0.8708 3.9864 -2.0015 0.9820
-1.2227 3.8921 -2.0012 0.9820
-1.8941 3.6116 -2.0004 0.9820
-2.2083 3.4277 -2.0001 0.9820
-2.7812 2.9798 -1.9994 0.9820
-3.4694 2.1362 -1.9985 0.9820
-1.1519 0.4512 -0.6068 0.9945
-1.1962 0.0192 -0.5868 0.9947
-1.1579 -0.2980 -0.5865 0.9947
-1.1562 -0.4106 -0.6018 0.9945
-3.3401 -2.3303 -1.9977 0.9820
-2.6047 -3.1323 -1.9983 0.9820
-2.3152 -3.3525 -1.9985 0.9820
-2.0072 -3.5461 -1.9988 0.9820
-0.2791 -4.0685 -2.0004 0.9820
0.0849 -4.0779 -2.0008 0.9820
0.8084 -3.9994 -2.0015 0.9820
1.5067 -3.7936 -2.0022 0.9820
2.4586 -3.2610 -2.0033 0.9820
2.9998 -2.7732 -2.0039 0.9820
3.2357 -2.4950 -2.0042 0.9820
3.6285 -1.8808 -2.0048 0.9820
3.7822 -1.5499 -2.0050 0.9820
3.9981 -0.8533 -2.0054 0.9820
4.0586 -0.4933 -2.0055 0.9819
4.0866 -0.1294 -2.0056 0.9819
4.0448 0.5988 -2.0057 0.9819
3.8740 1.3079 -2.0057 0.9819
3.7418 1.6482 -2.0056 0.9819
2.9284 2.8519 -2.0051 0.9820
2.6621 3.1014 -2.0049 0.9820
1.4086 3.8344 -2.0038 0.9820
1.0608 3.9441 -2.0035 0.9820
0.7047 4.0224 -2.0031 0.9820
0.3431 4.0685 -2.0028 0.9820
-0.3851 4.0632 -2.0020 0.9820
-0.7459 4.0119 -2.0017 0.9820
-1.7804 3.6693 -2.0006 0.9820
-2.4032 3.2934 -1.9999 0.9820
-2.9492 2.8131 -1.9992 0.9820
-3.1879 2.5384 -1.9989 0.9820
-1.1147 0.6001 -0.6210 0.9944
-1.1459 0.4906 -0.6115 0.9945
-1.1659 0.2679 -0.5868 0.9947
-1.1878 0.1633 -0.5881 0.9947
-1.1964 -0.0503 -0.5874 0.9947
-1.1886 -0.1570 -0.5881 0.9947
-1.1675 -0.2619 -0.5869 0.9947
-3.4112 -2.2247 -1.9977 0.9820
-2.1169 -3.4815 -1.9987 0.9820
-1.1202 -3.9195 -1.9996 0.9820
-0.7662 -4.0045 -1.9999 0.9820
-0.4061 -4.0575 -2.0003 0.9820
0.3215 -4.0666 -2.0010 0.9820
0.6830 -4.0225 -2.0014 0.9820
1.3874 -3.8385 -2.0021 0.9820
2.6440 -3.1132 -2.0035 0.9820
3.8660 -1.3279 -2.0051 0.9820
4.0411 -0.6199 -2.0054 0.9819
4.0805 -0.2570 -2.0056 0.9819
4.0615 0.4721 -2.0057 0.9819
3.9130 1.1863 -2.0057 0.9819
3.4589 2.1796 -2.0055 0.9819
3.2505 2.4793 -2.0053 0.9820
2.4774 3.2504 -2.0047 0.9820
1.1836 3.9093 -2.0036 0.9820
-0.6202 4.0335 -2.0018 0.9820
-0.9773 3.9614 -2.0014 0.9820
-1.6650 3.7233 -2.0007 0.9820
-3.1071 2.6369 -1.9990 0.9820
-3.3295 2.3489 -1.9987 0.9820
-1.1380 0.5299 -0.6158 0.9944
-1.1556 0.4172 -0.6027 0.9945
-1.1582 0.3046 -0.5875 0.9947
-1.1816 0.2002 -0.5879 0.9947
-1.1949 0.0940 -0.5879 0.9947
-1.1929 -0.1198 -0.5881 0.9947
-1.1528 -0.4445 -0.6060 0.9945
-1.1314 -0.5568 -0.6185 0.9944
-2.7950 -2.9633 -1.9981 0.9820
-2.2246 -3.4135 -1.9986 0.9820
-1.2420 -3.8824 -1.9995 0.9820
-0.8909 -3.9783 -1.9998 0.9820
0.1942 -4.0744 -2.0009 0.9820
0.5570 -4.0416 -2.0012 0.9820
0.9154 -3.9765 -2.0016 0.9820
1.2667 -3.8798 -2.0020 0.9820
1.6080 -3.7520 -2.0023 0.9820
1.9366 -3.5943 -2.0027 0.9820
2.2498 -3.4078 -2.0031 0.9820
2.8205 -2.9548 -2.0037 0.9820
3.0733 -2.6919 -2.0040 0.9820
3.5036 -2.1036 -2.0046 0.9820
3.6777 -1.7829 -2.0048 0.9820
3.8225 -1.4479 -2.0050 0.9820
3.9368 -1.1013 -2.0052 0.9820
4.0704 -0.3844 -2.0055 0.9819
4.0887 -0.0198 -2.0056 0.9819
4.0273 0.7070 -2.0057 0.9819
3.8376 1.4113 -2.0057 0.9819
3.6962 1.7479 -2.0056 0.9819
2.5779 3.1716 -2.0048 0.9820
2.2844 3.3884 -2.0046 0.9820
0.9547 3.9710 -2.0034 0.9820
0.5966 4.0396 -2.0030 0.9820
-0.1306 4.0799 -2.0023 0.9820
-0.4939 4.0512 -2.0019 0.9820
-1.2054 3.8975 -2.0012 0.9820
-1.5480 3.7738 -2.0008 0.9820
-2.1931 3.4375 -2.0001 0.9820
-3.0234 2.7329 -1.9991 0.9820
-3.2546 2.4519 -1.9988 0.9820
-3.4599 2.1516 -1.9986 0.9820
-1.1512 0.4567 -0.6075 0.9945
-1.1590 0.3438 -0.5930 0.9946
-1.1738 0.2368 -0.5874 0.9947
-1.1955 -0.0824 -0.5878 0.9947
-1.1584 -0.2927 -0.5861 0.9947
-1.1406 -0.5178 -0.6145 0.9944
-3.5433 -2.0073 -1.9976 0.9820
-2.8861 -2.8744 -1.9980 0.9820
-2.6185 -3.1207 -1.9983 0.9820
-2.3300 -3.3422 -1.9985 0.9820
-1.3626 -3.8415 -1.9994 0.9820
-1.0147 -3.9483 -1.9997 0.9820
0.0668 -4.0782 -2.0007 0.9820
0.4304 -4.0568 -2.0011 0.9820
1.1448 -3.9172 -2.0018 0.9820
1.8232 -3.6528 -2.0026 0.9820
2.1421 -3.4762 -2.0029 0.9820
2.9875 -2.7865 -2.0039 0.9820
3.2246 -2.5092 -2.0042 0.9820
3.4360 -2.2119 -2.0045 0.9820
3.9943 -0.8710 -2.0053 0.9820
4.0564 -0.5113 -2.0055 0.9819
4.0830 0.2175 -2.0057 0.9819
4.0474 0.5809 -2.0057 0.9819
3.9795 0.9396 -2.0057 0.9819
3.8798 1.2908 -2.0057 0.9819
3.3992 2.2716 -2.0054 0.9820
3.1828 2.5655 -2.0053 0.9820
2.9410 2.8389 -2.0051 0.9820
2.6758 3.0896 -2.0049 0.9820
2.0837 3.5150 -2.0044 0.9820
1.7617 3.6863 -2.0041 0.9820
1.4256 3.8282 -2.0038 0.9820
1.0783 3.9394 -2.0035 0.9820
-1.4294 3.8205 -2.0009 0.9820
-2.3886 3.3040 -1.9999 0.9820
-2.9367 2.8261 -1.9992 0.9820
-3.3911 2.2587 -1.9986 0.9820
-1.1122 0.6051 -0.6211 0.9944
-1.1449 0.4962 -0.6121 0.9945
-1.1870 0.1685 -0.5881 0.9947
-1.1893 -0.1518 -0.5881 0.9947
-1.1586 -0.3655 -0.5959 0.9946
-1.1202 -0.5891 -0.6208 0.9944
-3.4210 -2.2096 -1.9977 0.9820
-2.1323 -3.4721 -1.9987 0.9820
-1.4819 -3.7968 -1.9993 0.9820
-0.7840 -4.0010 -1.9999 0.9820
-0.4240 -4.0557 -2.0003 0.9820
-0.0606 -4.0781 -2.0006 0.9820
1.0218 -3.9508 -2.0017 0.9820
1.3703 -3.8446 -2.0021 0.9820
1.7081 -3.7077 -2.0025 0.9820
2.0324 -3.5412 -2.0028 0.9820
2.3405 -3.3465 -2.0032 0.9820
2.6301 -3.1249 -2.0035 0.9820
2.8988 -2.8783 -2.0038 0.9820
3.1445 -2.6086 -2.0041 0.9820
3.5589 -2.0090 -2.0047 0.9820
3.7244 -1.6837 -2.0049 0.9820
4.0636 0.4541 -2.0057 0.9819
3.7983 1.5137 -2.0057 0.9819
3.2615 2.4649 -2.0053 0.9820
2.7711 3.0046 -2.0050 0.9820
2.1927 3.4483 -2.0045 0.9820
1.8761 3.6297 -2.0042 0.9820
1.2009 3.9040 -2.0036 0.9820
0.8478 3.9949 -2.0032 0.9820
0.1244 4.0806 -2.0025 0.9820
-0.2400 4.0747 -2.0022 0.9820
-0.6023 4.0363 -2.0018 0.9820
-1.6485 3.7307 -2.0007 0.9820
-2.8471 2.9167 -1.9993 0.9820
-3.3191 2.3637 -1.9987 0.9820
-1.1585 0.3101 -0.5883 0.9947
-1.1806 0.2054 -0.5878 0.9947
-1.1945 0.0993 -0.5880 0.9947
-1.1958 -0.0076 -0.5866 0.9947
-1.1534 -0.4389 -0.6054 0.9945
-1.1328 -0.5513 -0.6180 0.9944
-3.2871 -2.4045 -1.9978 0.9820
-3.0598 -2.6883 -1.9979 0.9820
-2.5340 -3.1899 -1.9983 0.9820
-2.2396 -3.4036 -1.9986 0.9820
-1.9274 -3.5903 -1.9989 0.9820
-1.2592 -3.8768 -1.9995 0.9820
-0.5505 -4.0402 -2.0001 0.9820
-0.1880 -4.0739 -2.0005 0.9820
1.2495 -3.8853 -2.0020 0.9820
1.5913 -3.7591 -2.0023 0.9820
3.0613 -2.7055 -2.0040 0.9820
3.6698 -1.7992 -2.0048 0.9820
4.0687 -0.4024 -2.0055 0.9819
4.0758 0.3269 -2.0057 0.9819
3.5346 2.0549 -2.0055 0.9819
3.3370 2.3618 -2.0054 0.9820
2.5919 3.1601 -2.0048 0.9820
2.2994 3.3783 -2.0046 0.9820
1.9887 3.5694 -2.0043 0.9820
1.6621 3.7321 -2.0040 0.9820
1.3224 3.8648 -2.0037 0.9820
0.9723 3.9667 -2.0034 0.9820
0.6145 4.0369 -2.0030 0.9820
0.2519 4.0749 -2.0027 0.9820
-0.1125 4.0804 -2.0023 0.9820
-0.4760 4.0534 -2.0019 0.9820
-0.8354 3.9940 -2.0016 0.9820
-1.8620 3.6283 -2.0005 0.9820
-2.4762 3.2386 -1.9998 0.9820
-2.7547 3.0044 -1.9994 0.9820
-3.2437 2.4664 -1.9988 0.9820
-3.4504 2.1669 -1.9986 0.9820
-1.1504 0.4624 -0.6082 0.9945
-1.1589 0.3494 -0.5938 0.9946
-1.1726 0.2420 -0.5873 0.9947
-1.1912 0.1366 -0.5881 0.9947
-1.1846 -0.1836 -0.5880 0.9947
-1.1600 -0.2876 -0.5862 0.9947
-1.1570 -0.3994 -0.6004 0.9946
-3.5521 -1.9915 -1.9976 0.9820
-3.3606 -2.3006 -1.9977 0.9820
-3.1422 -2.5914 -1.9979 0.9820
-2.8988 -2.8615 -1.9980 0.9820
-1.7160 -3.6964 -1.9990 0.9820
-1.0322 -3.9437 -1.9997 0.9820
-0.6764 -4.0208 -2.0000 0.9820
-0.3152 -4.0658 -2.0004 0.9820
0.4124 -4.0586 -2.0011 0.9820
0.7729 -4.0064 -2.0015 0.9820
1.4730 -3.8067 -2.0022 0.9820
1.8070 -3.6608 -2.0026 0.9820
2.4296 -3.2826 -2.0033 0.9820
3.2134 -2.5235 -2.0042 0.9820
3.4262 -2.2271 -2.0045 0.9820
3.6116 -1.9129 -2.0047 0.9820
3.8949 -1.2410 -2.0052 0.9820
3.9904 -0.8888 -2.0053 0.9820
4.0853 -0.1656 -2.0056 0.9819
3.9836 0.9219 -2.0057 0.9819
3.7563 1.6150 -2.0056 0.9819
3.5971 1.9435 -2.0056 0.9819
3.1942 2.5514 -2.0053 0.9820
2.6895 3.0777 -2.0049 0.9820
2.4039 3.3050 -2.0047 0.9820
2.0993 3.5057 -2.0044 0.9820
1.7780 3.6785 -2.0041 0.9820
0.0150 4.0822 -2.0024 0.9820
-0.3491 4.0665 -2.0021 0.9820
-1.4125 3.8269 -2.0010 0.9820
-1.7479 3.6850 -2.0006 0.9820
-2.0692 3.5137 -2.0002 0.9820
-2.3739 3.3146 -1.9999 0.9820
-2.9242 2.8392 -1.9992 0.9820
-3.1653 2.5666 -1.9989 0.9820
-3.3811 2.2738 -1.9987 0.9820
-1.1439 0.5018 -0.6127 0.9945
-1.1577 0.3889 -0.5990 0.9946
-1.1961 0.0672 -0.5876 0.9947
-1.1900 -0.1465 -0.5881 0.9947
-1.1588 -0.3599 -0.5952 0.9946
-1.1489 -0.4728 -0.6094 0.9945
-2.7281 -3.0251 -1.9982 0.9820
-2.4476 -3.2568 -1.9984 0.9820
-2.1477 -3.4626 -1.9987 0.9820
-1.4987 -3.7902 -1.9992 0.9820
-0.4420 -4.0537 -2.0002 0.9820
-0.0787 -4.0777 -2.0006 0.9820
1.0042 -3.9553 -2.0017 0.9820
1.3533 -3.8506 -2.0021 0.9820
1.6916 -3.7152 -2.0024 0.9820
3.5500 -2.0247 -2.0047 0.9820
3.8541 -1.3621 -2.0051 0.9820
4.0781 -0.2932 -2.0056 0.9819
4.0881 0.0717 -2.0056 0.9819
4.0656 0.4361 -2.0057 0.9819
3.6562 1.8302 -2.0056 0.9819
3.4782 2.1489 -2.0055 0.9819
3.0405 2.7323 -2.0052 0.9820
2.7844 2.9923 -2.0050 0.9820
2.2079 3.4386 -2.0045 0.9820
1.8922 3.6213 -2.0042 0.9820
1.5614 3.7751 -2.0039 0.9820
1.2182 3.8987 -2.0036 0.9820
0.1426 4.0800 -2.0026 0.9820
-0.2219 4.0757 -2.0022 0.9820
-0.5845 4.0389 -2.0018 0.9820
-1.2923 3.8694 -2.0011 0.9820
-1.6320 3.7380 -2.0007 0.9820
-1.9585 3.5769 -2.0004 0.9820
-2.2694 3.3874 -2.0000 0.9820
-2.5620 3.1709 -1.9997 0.9820
-2.8342 2.9293 -1.9993 0.9820
-3.3086 2.3784 -1.9988 0.9820
-3.5071 2.0735 -1.9985 0.9820
-1.1941 0.1046 -0.5880 0.9947
1.9257 3.3491 -2.0042 0.9827
0.6325 3.8088 -2.0030 0.9828
-0.3982 3.8384 -2.0020 0.9828
-0.7388 3.7869 -2.0016 0.9828
-1.3994 3.5941 -2.0009 0.9828
-2.0151 3.2872 -2.0002 0.9828
-2.2999 3.0938 -1.9999 0.9828
-2.5663 2.8759 -1.9996 0.9828
-3.0356 2.3735 -1.9990 0.9828
-1.0195 0.5372 -0.5978 0.9948
-1.0628 0.3362 -0.5783 0.9950
-1.0806 0.2383 -0.5741 0.9950
-1.0998 0.1412 -0.5752 0.9950
-1.1066 0.0425 -0.5745 0.9950
-1.0979 -0.1550 -0.5752 0.9950
-1.0769 -0.2516 -0.5737 0.9950
-1.0130 -0.5501 -0.5980 0.9948
-3.2069 -2.1323 -1.9979 0.9828
-2.7775 -2.6686 -1.9982 0.9828
-2.5286 -2.9060 -1.9984 0.9828
-2.2596 -3.1203 -1.9986 0.9828
-1.3534 -3.6086 -1.9994 0.9828
-0.3500 -3.8400 -2.0004 0.9828
-0.0060 -3.8566 -2.0007 0.9828
1.0157 -3.7225 -2.0018 0.9828
1.6615 -3.4840 -2.0025 0.9828
1.9660 -3.3225 -2.0028 0.9828
2.5259 -2.9213 -2.0034 0.9827
3.2105 -2.1492 -2.0043 0.9827
3.3898 -1.8545 -2.0045 0.9827
3.8633 0.1363 -2.0054 0.9827
3.8358 0.4804 -2.0055 0.9827
3.5717 1.4787 -2.0054 0.9827
2.3149 3.0937 -2.0045 0.9827
2.0295 3.2875 -2.0043 0.9827
1.7280 3.4549 -2.0040 0.9827
1.0863 3.7059 -2.0034 0.9827
-0.2781 3.8492 -2.0021 0.9828
-0.6202 3.8084 -2.0017 0.9828
-1.2865 3.6363 -2.0010 0.9828
-1.9115 3.3487 -2.0004 0.9828
-2.2022 3.1644 -2.0000 0.9828
-2.7286 2.7219 -1.9994 0.9828
-3.1679 2.1932 -1.9989 0.9828
-1.0709 0.2715 -0.5731 0.9950
-1.0945 0.1755 -0.5751 0.9950
-1.1065 -0.0217 -0.5741 0.9950
-1.0544 -0.4174 -0.5883 0.9949
-1.0288 -0.5177 -0.5975 0.9948
-3.0779 -2.3149 -1.9980 0.9828
-2.3559 -3.0480 -1.9985 0.9828
-2.0749 -3.2464 -1.9988 0.9828
-1.1419 -3.6815 -1.9996 0.9828
-0.8091 -3.7692 -1.9999 0.9828
-0.4697 -3.8270 -2.0003 0.9828
-0.1265 -3.8543 -2.0006 0.9828
0.2178 -3.8509 -2.0009 0.9828
0.8988 -3.7522 -2.0016 0.9828
2.4332 -2.9986 -2.0033 0.9827
2.6914 -2.7700 -2.0036 0.9827
2.9282 -2.5193 -2.0039 0.9827
3.4920 -1.6548 -2.0047 0.9827
3.6260 -1.3369 -2.0049 0.9827
3.8065 -0.6715 -2.0052 0.9827
3.8514 -0.3293 -2.0053 0.9827
3.8656 0.0156 -2.0054 0.9827
3.7237 1.0384 -2.0055 0.9827
3.6162 1.3664 -2.0054 0.9827
3.4797 1.6834 -2.0054 0.9827
3.3156 1.9870 -2.0053 0.9827
2.6706 2.7932 -2.0048 0.9827
2.1313 3.2226 -2.0044 0.9827
1.8351 3.3994 -2.0041 0.9827
0.5302 3.8242 -2.0029 0.9828
0.1869 3.8556 -2.0026 0.9828
-0.1577 3.8562 -2.0022 0.9828
-0.5009 3.8262 -2.0019 0.9828
-0.8401 3.7656 -2.0015 0.9828
-1.1724 3.6750 -2.0012 0.9828
-1.4952 3.5551 -2.0008 0.9828
-1.8061 3.4070 -2.0005 0.9828
-2.3819 3.0309 -1.9998 0.9828
-2.6423 2.8060 -1.9995 0.9828
-0.9845 0.6002 -0.5982 0.9948
-1.0325 0.5092 -0.5973 0.9948
-1.0558 0.4081 -0.5872 0.9949
-1.0637 0.3054 -0.5741 0.9950
-1.1031 0.1117 -0.5752 0.9950
-1.1063 0.0128 -0.5739 0.9950
-1.0929 -0.1843 -0.5750 0.9950
-1.0412 -0.4838 -0.5956 0.9948
-0.9982 -0.5772 -0.5982 0.9948
-2.9386 -2.4898 -1.9981 0.9828
-2.7050 -2.7422 -1.9983 0.9828
-2.1752 -3.1799 -1.9987 0.9828
-1.8832 -3.3616 -1.9989 0.9828
-1.5760 -3.5167 -1.9992 0.9828
-1.2563 -3.6438 -1.9995 0.9828
-0.9264 -3.7419 -1.9998 0.9828
-0.2469 -3.8482 -2.0005 0.9828
0.4409 -3.8322 -2.0012 0.9828
0.7811 -3.7782 -2.0015 0.9828
1.1152 -3.6941 -2.0019 0.9828
1.4405 -3.5806 -2.0022 0.9828
1.7544 -3.4384 -2.0026 0.9828
2.0545 -3.2688 -2.0029 0.9828
2.3382 -3.0730 -2.0032 0.9828
2.6034 -2.8526 -2.0035 0.9827
2.8479 -2.6094 -2.0038 0.9827
3.0697 -2.3453 -2.0041 0.9827
3.2671 -2.0625 -2.0044 0.9827
3.4384 -1.7630 -2.0046 0.9827
3.5824 -1.4495 -2.0048 0.9827
3.6977 -1.1243 -2.0050 0.9827
3.7835 -0.7900 -2.0052 0.9827
3.8392 -0.4494 -2.0053 0.9827
3.8215 0.5831 -2.0055 0.9827
3.6571 1.2528 -2.0055 0.9827
3.5307 1.5739 -2.0054 0.9827
3.1945 2.1760 -2.0052 0.9827
2.9875 2.4521 -2.0051 0.9827
2.7566 2.7085 -2.0049 0.9827
2.5038 2.9433 -2.0047 0.9827
2.2310 3.1546 -2.0044 0.9827
1.3158 3.6312 -2.0036 0.9827
0.9865 3.7335 -2.0033 0.9827
0.3073 3.8481 -2.0027 0.9828
-0.0371 3.8595 -2.0023 0.9828
-0.3812 3.8402 -2.0020 0.9828
-0.7220 3.7902 -2.0016 0.9828
-1.0571 3.7100 -2.0013 0.9828
-1.3835 3.6003 -2.0009 0.9828
-1.6988 3.4620 -2.0006 0.9828
-2.0005 3.2961 -2.0003 0.9828
-2.2862 3.1040 -1.9999 0.9828
-1.0173 0.5418 -0.5979 0.9948
-1.0498 0.4440 -0.5913 0.9949
-1.0625 0.3413 -0.5789 0.9950
-1.1065 -0.0515 -0.5746 0.9950
-1.0986 -0.1501 -0.5752 0.9950
-1.0782 -0.2469 -0.5738 0.9950
-1.0622 -0.3454 -0.5795 0.9950
-1.0154 -0.5456 -0.5980 0.9948
-2.5415 -2.8947 -1.9984 0.9828
-1.9872 -3.3010 -1.9989 0.9828
-1.6851 -3.4656 -1.9991 0.9828
-1.3694 -3.6026 -1.9994 0.9828
-1.0428 -3.7109 -1.9997 0.9828
-0.3670 -3.8384 -2.0004 0.9828
-0.0231 -3.8565 -2.0007 0.9828
0.3210 -3.8438 -2.0010 0.9828
0.9992 -3.7269 -2.0017 0.9828
1.6461 -3.4913 -2.0024 0.9828
1.9512 -3.3312 -2.0028 0.9828
2.7648 -2.6970 -2.0037 0.9827
3.3815 -1.8695 -2.0045 0.9827
3.5352 -1.5606 -2.0047 0.9827
3.6606 -1.2392 -2.0049 0.9827
3.8232 -0.5692 -2.0052 0.9827
3.8589 -0.2259 -2.0053 0.9827
3.8638 0.1192 -2.0054 0.9827
3.2610 2.0752 -2.0052 0.9827
3.0627 2.3576 -2.0051 0.9827
2.8400 2.6212 -2.0049 0.9827
1.1027 3.7011 -2.0034 0.9827
0.7681 3.7841 -2.0031 0.9828
0.0835 3.8590 -2.0025 0.9828
-0.6033 3.8111 -2.0018 0.9828
-1.2704 3.6420 -2.0011 0.9828
-1.5899 3.5136 -2.0007 0.9828
-1.8967 3.3572 -2.0004 0.9828
-2.1882 3.1741 -2.0000 0.9828
-2.7165 2.7340 -1.9994 0.9828
-3.1582 2.2072 -1.9989 0.9828
-1.0003 0.5736 -0.5982 0.9948
-1.0694 0.2762 -0.5730 0.9950
-1.0937 0.1803 -0.5750 0.9950
-1.0869 -0.2134 -0.5746 0.9950
-1.0637 -0.3095 -0.5747 0.9950
-1.0552 -0.4123 -0.5877 0.9949
-1.0308 -0.5130 -0.5974 0.9948
-2.8708 -2.5677 -1.9981 0.9828
-2.6306 -2.8138 -1.9983 0.9828
-2.3694 -3.0376 -1.9985 0.9828
-2.0893 -3.2372 -1.9988 0.9828
-1.7924 -3.4111 -1.9990 0.9828
-1.4812 -3.5578 -1.9993 0.9828
-0.8258 -3.7655 -1.9999 0.9828
-0.1436 -3.8536 -2.0006 0.9828
0.2007 -3.8517 -2.0009 0.9828
1.5361 -3.5408 -2.0023 0.9828
1.8461 -3.3903 -2.0027 0.9828
2.1415 -3.2126 -2.0030 0.9828
2.4199 -3.0093 -2.0033 0.9827
2.9170 -2.5322 -2.0039 0.9827
3.3213 -1.9742 -2.0044 0.9827
3.4846 -1.6702 -2.0047 0.9827
3.6200 -1.3529 -2.0049 0.9827
3.8034 -0.6883 -2.0052 0.9827
3.8499 -0.3463 -2.0053 0.9827
3.8505 0.3432 -2.0055 0.9827
3.8046 0.6853 -2.0055 0.9827
3.7283 1.0219 -2.0055 0.9827
3.6222 1.3504 -2.0054 0.9827
3.3243 1.9723 -2.0053 0.9827
3.1350 2.2608 -2.0052 0.9827
2.9206 2.5312 -2.0050 0.9827
2.6829 2.7814 -2.0048 0.9827
2.4239 3.0093 -2.0046 0.9827
2.1456 3.2131 -2.0044 0.9827
1.5401 3.5423 -2.0038 0.9827
0.5471 3.8218 -2.0029 0.9828
0.2040 3.8548 -2.0026 0.9828
-0.4840 3.8284 -2.0019 0.9828
-1.4795 3.5618 -2.0008 0.9828
-2.0881 3.2411 -2.0002 0.9828
-2.3685 3.0415 -1.9998 0.9828
-2.6299 2.8177 -1.9995 0.9828
-2.8703 2.5715 -1.9992 0.9828
-0.9817 0.6045 -0.5981 0.9948
-1.0305 0.5139 -0.5974 0.9948
-1.0637 0.3104 -0.5748 0.9950
-1.1064 0.0177 -0.5740 0.9950
-1.0697 -0.2753 -0.5730 0.9950
-1.0597 -0.3763 -0.5834 0.9949
-1.0424 -0.4788 -0.5951 0.9948
-3.1585 -2.2036 -1.9979 0.9828
-2.9496 -2.4767 -1.9981 0.9828
-2.7171 -2.7302 -1.9982 0.9828
-2.1893 -3.1702 -1.9987 0.9828
-1.8980 -3.3532 -1.9989 0.9828
-1.5916 -3.5096 -1.9992 0.9828
-0.9429 -3.7377 -1.9998 0.9828
-0.6059 -3.8075 -2.0001 0.9828
-0.2639 -3.8470 -2.0005 0.9828
0.7644 -3.7816 -2.0015 0.9828
1.4246 -3.5869 -2.0022 0.9828
1.7392 -3.4461 -2.0025 0.9828
2.0400 -3.2778 -2.0029 0.9828
2.3246 -3.0833 -2.0032 0.9828
2.8363 -2.6220 -2.0038 0.9827
3.0593 -2.3589 -2.0041 0.9827
3.2579 -2.0769 -2.0043 0.9827
3.5759 -1.4653 -2.0048 0.9827
3.7800 -0.8068 -2.0051 0.9827
3.8636 -0.1224 -2.0054 0.9827
3.8593 0.2228 -2.0054 0.9827
3.8241 0.5661 -2.0055 0.9827
3.6626 1.2366 -2.0055 0.9827
3.5376 1.5583 -2.0054 0.9827
3.3844 1.8675 -2.0053 0.9827
3.2042 2.1618 -2.0052 0.9827
2.7686 2.6963 -2.0049 0.9827
2.2450 3.1447 -2.0045 0.9827
1.9553 3.3320 -2.0042 0.9827
1.6501 3.4926 -2.0039 0.9827
0.6663 3.8031 -2.0030 0.9828
0.3244 3.8467 -2.0027 0.9828
-0.7052 3.7934 -2.0017 0.9828
-1.0406 3.7147 -2.0013 0.9828
-1.3676 3.6065 -2.0010 0.9828
-1.9859 3.3050 -2.0003 0.9828
-2.7887 2.6600 -1.9993 0.9828
-3.2161 2.1216 -1.9988 0.9828
-1.0149 0.5464 -0.5980 0.9948
-1.0489 0.4491 -0.5919 0.9949
-1.0622 0.3464 -0.5796 0.9950
-1.0984 0.1510 -0.5752 0.9950
-1.1065 -0.0465 -0.5746 0.9950
-1.0625 -0.3403 -0.5788 0.9950
-1.0500 -0.4431 -0.5912 0.9949
-3.0254 -2.3833 -1.9980 0.9828
-2.8010 -2.6439 -1.9982 0.9828
-2.5543 -2.8834 -1.9984 0.9828
-2.2872 -3.1001 -1.9986 0.9828
-1.7004 -3.4580 -1.9991 0.9828
-1.3854 -3.5964 -1.9994 0.9828
-0.7245 -3.7865 -2.0000 0.9828
-0.0402 -3.8563 -2.0007 0.9828
0.3039 -3.8452 -2.0010 0.9828
0.6458 -3.8034 -2.0014 0.9828
0.9827 -3.7313 -2.0017 0.9828
1.3118 -3.6294 -2.0021 0.9828
1.6306 -3.4986 -2.0024 0.9828
1.9364 -3.3397 -2.0028 0.9828
2.2270 -3.1542 -2.0031 0.9828
2.7528 -2.7092 -2.0037 0.9827
2.9839 -2.4532 -2.0040 0.9827
3.3732 -1.8845 -2.0045 0.9827
3.6551 -1.2554 -2.0049 0.9827
3.7528 -0.9245 -2.0051 0.9827
3.8643 0.1021 -2.0054 0.9827
3.5846 1.4470 -2.0054 0.9827
3.4412 1.7609 -2.0054 0.9827
2.8516 2.6086 -2.0049 0.9827
2.6073 2.8523 -2.0048 0.9827
2.0586 3.2694 -2.0043 0.9827
1.7585 3.4395 -2.0040 0.9827
1.4445 3.5821 -2.0038 0.9827
1.1191 3.6962 -2.0035 0.9827
0.1006 3.8587 -2.0025 0.9828
-0.5864 3.8138 -2.0018 0.9828
-1.8818 3.3656 -2.0004 0.9828
-2.9381 2.4935 -1.9991 0.9828
-3.1484 2.2212 -1.9989 0.9828
-1.0410 0.4847 -0.5957 0.9948
-1.1050 0.0870 -0.5750 0.9950
-1.1062 -0.0119 -0.5739 0.9950
-1.1032 -0.1108 -0.5752 0.9950
-1.0880 -0.2086 -0.5747 0.9950
-1.0559 -0.4072 -0.5871 0.9949
-1.0329 -0.5084 -0.5972 0.9948
-3.0983 -2.2875 -1.9980 0.9828
-2.8822 -2.5550 -1.9981 0.9828
-2.6430 -2.8021 -1.9983 0.9828
-2.3828 -3.0270 -1.9985 0.9828
-2.1036 -3.2279 -1.9988 0.9828
-1.8075 -3.4031 -1.9990 0.9828
-1.4970 -3.5512 -1.9993 0.9828
-0.8424 -3.7618 -1.9999 0.9828
-0.1607 -3.8529 -2.0006 0.9828
1.1977 -3.6684 -2.0020 0.9828
1.8310 -3.3984 -2.0026 0.9828
2.1272 -3.2221 -2.0030 0.9828
2.9057 -2.5451 -2.0039 0.9827
3.1215 -2.2761 -2.0042 0.9827
3.4771 -1.6857 -2.0047 0.9827
3.6140 -1.3690 -2.0049 0.9827
3.8003 -0.7051 -2.0052 0.9827
3.8519 0.3262 -2.0055 0.9827
3.8075 0.6685 -2.0055 0.9827
3.6281 1.3343 -2.0055 0.9827
2.4372 2.9985 -2.0046 0.9827
2.1598 3.2036 -2.0044 0.9827
1.8652 3.3831 -2.0041 0.9827
1.5558 3.5354 -2.0039 0.9827
1.2341 3.6596 -2.0036 0.9827
-0.4670 3.8305 -2.0019 0.9828
-0.8067 3.7729 -2.0016 0.9828
-1.4637 3.5683 -2.0009 0.9828
-2.0737 3.2504 -2.0002 0.9828
-2.8589 2.5842 -1.9992 0.9828
-1.0284 0.5185 -0.5975 0.9948
-1.0635 0.3155 -0.5755 0.9950
-1.0855 0.2190 -0.5745 0.9950
-1.1065 0.0226 -0.5741 0.9950
-1.1056 -0.0762 -0.5749 0.9950
-1.0712 -0.2706 -0.5732 0.9950
-3.1682 -2.1896 -1.9979 0.9828
-2.9605 -2.4636 -1.9981 0.9828
-0.9595 -3.7335 -1.9998 0.9828
-0.2810 -3.8458 -2.0004 0.9828
0.0632 -3.8562 -2.0008 0.9828
0.7476 -3.7849 -2.0015 0.9828
1.4087 -3.5931 -2.0022 0.9828
1.7239 -3.4538 -2.0025 0.9828
2.3109 -3.0935 -2.0032 0.9828
2.5780 -2.8755 -2.0035 0.9827
2.8246 -2.6345 -2.0038 0.9827
3.2486 -2.0913 -2.0043 0.9827
3.6876 -1.1570 -2.0050 0.9827
3.7764 -0.8235 -2.0051 0.9827
3.8350 -0.4834 -2.0053 0.9827
3.8266 0.5492 -2.0055 0.9827
3.7623 0.8883 -2.0055 0.9827
3.5445 1.5426 -2.0054 0.9827
3.3927 1.8525 -2.0053 0.9827
3.2137 2.1476 -2.0052 0.9827
3.0091 2.4255 -2.0051 0.9827
2.2590 3.1347 -2.0045 0.9827
1.6656 3.4853 -2.0040 0.9827
1.3479 3.6194 -2.0037 0.9827
0.6831 3.8002 -2.0030 0.9828
-0.0029 3.8598 -2.0024 0.9828
-0.6884 3.7965 -2.0017 0.9828
-1.0241 3.7193 -2.0013 0.9828
-2.2586 3.1242 -2.0000 0.9828
-3.0038 2.4137 -1.9991 0.9828
-1.0126 0.5509 -0.5980 0.9948
-1.0767 0.2525 -0.5737 0.9950
-1.0977 0.1558 -0.5752 0.9950
-1.1066 -0.0416 -0.5745 0.9950
-1.0510 -0.4380 -0.5907 0.9949
-3.2350 -2.0895 -1.9979 0.9828
-3.0359 -2.3698 -1.9980 0.9828
-2.5670 -2.8721 -1.9984 0.9828
-2.0163 -3.2832 -1.9988 0.9828
-1.7157 -3.4504 -1.9991 0.9828
-1.0756 -3.7015 -1.9997 0.9828
-0.0573 -3.8560 -2.0007 0.9828
0.2869 -3.8465 -2.0010 0.9828
1.2957 -3.6352 -2.0021 0.9828
2.7408 -2.7213 -2.0037 0.9827
2.9730 -2.4664 -2.0040 0.9827
3.6495 -1.2716 -2.0049 0.9827
3.7487 -0.9411 -2.0051 0.9827
3.8180 -0.6030 -2.0052 0.9827
3.8567 -0.2601 -2.0053 0.9827
3.8647 0.0850 -2.0054 0.9827
3.5910 1.4311 -2.0054 0.9827
3.4489 1.7456 -2.0054 0.9827
3.2793 2.0462 -2.0053 0.9827
3.0835 2.3304 -2.0051 0.9827
2.8631 2.5959 -2.0050 0.9827
2.6199 2.8407 -2.0048 0.9827
2.0731 3.2602 -2.0043 0.9827
1.7738 3.4317 -2.0041 0.9827
0.4614 3.8330 -2.0028 0.9828
0.1177 3.8582 -2.0025 0.9828
-0.9075 3.7497 -2.0014 0.9828
-1.5588 3.5276 -2.0007 0.9828
-2.1600 3.1934 -2.0001 0.9828
-3.1385 2.2351 -1.9989 0.9828
-1.0397 0.4898 -0.5962 0.9948
-1.0585 0.3875 -0.5847 0.9949
-1.0664 0.2855 -0.5727 0.9950
-1.0919 0.1900 -0.5749 0.9950
-1.1047 0.0919 -0.5751 0.9950
-1.1061 -0.0070 -0.5738 0.9950
-1.1036 -0.1059 -0.5752 0.9950
-1.0566 -0.4021 -0.5865 0.9949
-3.1084 -2.2738 -1.9980 0.9828
-2.6554 -2.7904 -1.9983 0.9828
-2.3962 -3.0164 -1.9985 0.9828
-1.8226 -3.3950 -1.9990 0.9828
-1.5127 -3.5445 -1.9993 0.9828
-1.1907 -3.6658 -1.9996 0.9828
0.1666 -3.8533 -2.0009 0.9828
0.8489 -3.7637 -2.0016 0.9828
1.1814 -3.6737 -2.0019 0.9828
2.1129 -3.2315 -2.0030 0.9828
3.1114 -2.2899 -2.0042 0.9827
3.3037 -2.0035 -2.0044 0.9827
3.7173 -1.0577 -2.0050 0.9827
3.7972 -0.7220 -2.0052 0.9827
3.8467 -0.3804 -2.0053 0.9827
3.8654 -0.0358 -2.0054 0.9827
3.8533 0.3091 -2.0055 0.9827
3.8105 0.6515 -2.0055 0.9827
3.7372 0.9889 -2.0055 0.9827
3.6340 1.3182 -2.0055 0.9827
3.5018 1.6370 -2.0054 0.9827
3.3417 1.9428 -2.0053 0.9827
3.1549 2.2330 -2.0052 0.9827
2.7075 2.7575 -2.0048 0.9827
2.4505 2.9877 -2.0046 0.9827
1.2503 3.6541 -2.0036 0.9827
0.9193 3.7505 -2.0033 0.9827
-0.1064 3.8581 -2.0023 0.9828
-0.7899 3.7765 -2.0016 0.9828
-1.1234 3.6903 -2.0012 0.9828
-2.6049 2.8409 -1.9996 0.9828
-3.0673 2.3322 -1.9990 0.9828
-1.0535 0.4234 -0.5890 0.9949
-1.0634 0.3206 -0.5762 0.9950
-1.0844 0.2238 -0.5744 0.9950
-1.1066 0.0275 -0.5742 0.9950
-1.0955 -0.1698 -0.5751 0.9950
-1.0607 -0.3661 -0.5821 0.9950
-1.0448 -0.4687 -0.5940 0.9949
-3.1779 -2.1755 -1.9979 0.9828
-2.4892 -2.9400 -1.9984 0.9828
-1.3046 -3.6267 -1.9995 0.9828
-0.9760 -3.7292 -1.9998 0.9828
-0.6396 -3.8019 -2.0001 0.9828
0.0461 -3.8564 -2.0008 0.9828
0.3900 -3.8376 -2.0011 0.9828
0.7308 -3.7882 -2.0015 0.9828
1.0660 -3.7086 -2.0018 0.9828
1.3927 -3.5993 -2.0022 0.9828
2.2971 -3.1037 -2.0032 0.9828
2.8129 -2.6470 -2.0038 0.9827
3.0382 -2.3859 -2.0041 0.9827
3.4146 -1.8085 -2.0046 0.9827
3.8328 -0.5004 -2.0053 0.9827
3.8290 0.5322 -2.0055 0.9827
3.7662 0.8716 -2.0055 0.9827
3.2232 2.1334 -2.0052 0.9827
2.7924 2.6717 -2.0049 0.9827
1.0361 3.7201 -2.0034 0.9827
-1.0077 3.7239 -2.0013 0.9828
-1.6527 3.4844 -2.0006 0.9828
-2.2447 3.1342 -2.0000 0.9828
-2.5150 2.9210 -1.9997 0.9828
-2.9931 2.4270 -1.9991 0.9828
-3.1972 2.1501 -1.9988 0.9828
-1.0102 0.5555 -0.5981 0.9948
-1.0970 0.1607 -0.5752 0.9950
-1.1062 0.0622 -0.5748 0.9950
-1.1066 -0.0367 -0.5744 0.9950
-1.1005 -0.1355 -0.5752 0.9950
-1.0821 -0.2327 -0.5742 0.9950
-1.0630 -0.3301 -0.5775 0.9950
-1.0519 -0.4329 -0.5901 0.9949
-1.0222 -0.5318 -0.5978 0.9948
-3.0464 -2.3563 -1.9980 0.9828
-2.8243 -2.6189 -1.9982 0.9828
-2.5797 -2.8606 -1.9984 0.9828
-2.3145 -3.0797 -1.9986 0.9828
-1.7309 -3.4428 -1.9991 0.9828
-1.4172 -3.5840 -1.9994 0.9828
-0.7581 -3.7799 -2.0000 0.9828
-0.4180 -3.8331 -2.0003 0.9828
0.2699 -3.8477 -2.0010 0.9828
0.6121 -3.8089 -2.0013 0.9828
0.9495 -3.7398 -2.0017 0.9828
1.2795 -3.6408 -2.0020 0.9828
1.5995 -3.5128 -2.0024 0.9828
2.1989 -3.1738 -2.0031 0.9828
2.4736 -2.9655 -2.0034 0.9827
2.7287 -2.7334 -2.0037 0.9827
2.9620 -2.4795 -2.0040 0.9827
3.5141 -1.6075 -2.0047 0.9827
3.6438 -1.2878 -2.0049 0.9827
3.8651 0.0678 -2.0054 0.9827
3.7093 1.0887 -2.0055 0.9827
3.4566 1.7303 -2.0054 0.9827
3.2884 2.0316 -2.0053 0.9827
3.0938 2.3167 -2.0051 0.9827
2.3694 3.0522 -2.0046 0.9827
1.4762 3.5693 -2.0038 0.9827
1.1518 3.6862 -2.0035 0.9827
0.1348 3.8577 -2.0025 0.9828
-0.5526 3.8189 -2.0018 0.9828
-0.8909 3.7538 -2.0015 0.9828
-1.2219 3.6587 -2.0011 0.9828
-2.4226 2.9984 -1.9998 0.9828
-3.1286 2.2490 -1.9989 0.9828
-1.0384 0.4948 -0.5968 0.9948
-1.0909 0.1948 -0.5749 0.9950
1.5335 3.3216 -2.0038 0.9835
-0.3771 3.6357 -2.0019 0.9835
-0.6998 3.5869 -2.0016 0.9835
-1.0168 3.5096 -2.0013 0.9835
-1.3256 3.4044 -2.0010 0.9835
-1.6237 3.2721 -2.0006 0.9835
-2.1785 2.9306 -2.0000 0.9835
-2.4309 2.7242 -1.9997 0.9835
-2.8754 2.2483 -1.9992 0.9835
-0.9798 0.3099 -0.5628 0.9953
-1.0032 0.2212 -0.5627 0.9953
-1.0276 0.0395 -0.5632 0.9953
-0.9787 -0.3231 -0.5645 0.9953
-0.9644 -0.4170 -0.5755 0.9952
-0.9280 -0.5039 -0.5784 0.9952
-0.8787 -0.5843 -0.5780 0.9952
-2.8458 -2.2829 -1.9982 0.9835
-2.3953 -2.7527 -1.9986 0.9835
-2.1405 -2.9557 -1.9988 0.9835
-0.9722 -3.5195 -1.9998 0.9835
-0.6545 -3.5927 -2.0001 0.9835
-0.3315 -3.6373 -2.0004 0.9835
-0.0057 -3.6530 -2.0008 0.9835
0.6436 -3.5971 -2.0014 0.9835
0.9621 -3.5259 -2.0017 0.9835
1.5738 -3.3000 -2.0024 0.9835
2.1357 -2.9688 -2.0030 0.9835
2.6300 -2.5428 -2.0036 0.9835
2.8467 -2.2984 -2.0039 0.9835
3.2105 -1.7564 -2.0044 0.9834
3.6589 0.1291 -2.0052 0.9834
3.6329 0.4550 -2.0053 0.9834
3.5778 0.7772 -2.0053 0.9834
3.3827 1.4005 -2.0052 0.9834
3.0798 1.9791 -2.0050 0.9834
2.8908 2.2457 -2.0049 0.9834
2.6787 2.4944 -2.0048 0.9834
2.4453 2.7232 -2.0046 0.9834
1.9222 3.1136 -2.0041 0.9835
1.3380 3.4047 -2.0036 0.9835
1.0289 3.5100 -2.0033 0.9835
0.3887 3.6358 -2.0027 0.9835
0.0629 3.6554 -2.0024 0.9835
-0.2634 3.6459 -2.0021 0.9835
-0.5874 3.6073 -2.0017 0.9835
-1.2186 3.4443 -2.0011 0.9835
-1.5207 3.3214 -2.0007 0.9835
-2.3447 2.7989 -1.9998 0.9835
-2.5846 2.5783 -1.9995 0.9835
-2.8039 2.3372 -1.9993 0.9835
-0.9186 0.5214 -0.5785 0.9952
-0.9586 0.4360 -0.5768 0.9952
-0.9767 0.3429 -0.5670 0.9953
-1.0162 0.1629 -0.5637 0.9953
-1.0266 0.0716 -0.5636 0.9953
-1.0079 -0.2025 -0.5631 0.9953
-0.9425 -0.4743 -0.5779 0.9952
-2.4801 -2.6765 -1.9985 0.9835
-1.9655 -3.0752 -1.9989 0.9835
-1.6835 -3.2387 -1.9992 0.9835
-0.7664 -3.5703 -2.0000 0.9835
-0.1199 -3.6508 -2.0006 0.9835
0.2063 -3.6475 -2.0010 0.9835
1.7628 -3.2034 -2.0026 0.9835
2.3046 -2.8401 -2.0032 0.9835
2.5491 -2.6236 -2.0035 0.9835
2.7734 -2.3861 -2.0038 0.9835
2.9755 -2.1295 -2.0041 0.9835
3.3073 -1.5673 -2.0045 0.9834
3.4342 -1.2662 -2.0047 0.9834
3.5338 -0.9549 -2.0049 0.9834
3.6051 -0.6359 -2.0050 0.9834
3.6476 -0.3119 -2.0051 0.9834
3.6611 0.0147 -2.0052 0.9834
3.5267 0.9835 -2.0053 0.9834
3.1402 1.8819 -2.0051 0.9834
2.5293 2.6455 -2.0046 0.9834
2.2831 2.8603 -2.0044 0.9834
1.1381 3.4763 -2.0034 0.9835
0.1771 3.6519 -2.0025 0.9835
-0.4745 3.6241 -2.0019 0.9835
-0.7957 3.5667 -2.0015 0.9835
-1.4163 3.3675 -2.0009 0.9835
-1.7107 3.2272 -2.0005 0.9835
-1.9915 3.0612 -2.0002 0.9835
-2.2562 2.8710 -1.9999 0.9835
-2.5029 2.6579 -1.9996 0.9835
-2.7297 2.4237 -1.9993 0.9835
-0.9460 0.4665 -0.5777 0.9952
-0.9841 0.2825 -0.5608 0.9953
-1.0147 -0.1711 -0.5636 0.9953
-0.9918 -0.2600 -0.5616 0.9953
-0.9555 -0.4440 -0.5770 0.9952
-0.9144 -0.5288 -0.5785 0.9952
-0.8618 -0.6069 -0.5773 0.9952
-2.7836 -2.3585 -1.9983 0.9835
-2.5624 -2.5976 -1.9984 0.9835
-2.3207 -2.8161 -1.9986 0.9835
-2.0605 -3.0121 -1.9988 0.9835
-0.5580 -3.6091 -2.0002 0.9835
-0.2339 -3.6451 -2.0005 0.9835
1.0563 -3.4990 -2.0018 0.9835
2.6973 -2.4715 -2.0037 0.9835
3.2566 -1.6698 -2.0044 0.9834
3.5021 -1.0648 -2.0048 0.9834
3.5834 -0.7483 -2.0050 0.9834
3.6597 -0.0997 -2.0052 0.9834
3.6541 0.2272 -2.0052 0.9834
3.5557 0.8728 -2.0053 0.9834
3.3439 1.4907 -2.0052 0.9834
3.1975 1.7829 -2.0051 0.9834
3.0255 2.0609 -2.0050 0.9834
2.8295 2.3224 -2.0049 0.9834
2.6108 2.5653 -2.0047 0.9834
2.3714 2.7877 -2.0045 0.9834
2.1131 2.9877 -2.0043 0.9834
1.8379 3.1639 -2.0041 0.9835
1.5482 3.3148 -2.0038 0.9835
0.6151 3.6049 -2.0029 0.9835
-0.0352 3.6556 -2.0023 0.9835
-1.0012 3.5141 -2.0013 0.9835
-1.3105 3.4103 -2.0010 0.9835
-2.1655 2.9402 -2.0000 0.9835
-2.8655 2.2610 -1.9992 0.9835
-1.0020 0.2256 -0.5625 0.9953
-1.0206 0.1357 -0.5639 0.9953
-1.0275 0.0441 -0.5633 0.9953
-1.0275 -0.0478 -0.5634 0.9953
-1.0200 -0.1394 -0.5639 0.9953
-1.0010 -0.2292 -0.5625 0.9953
-0.9791 -0.3184 -0.5639 0.9953
-0.9654 -0.4124 -0.5750 0.9952
-0.9301 -0.4998 -0.5783 0.9952
-0.8815 -0.5805 -0.5781 0.9952
-2.8559 -2.2703 -1.9982 0.9835
-2.6422 -2.5162 -1.9984 0.9835
-1.5962 -3.2827 -1.9992 0.9835
-1.2972 -3.4125 -1.9995 0.9835
-0.6704 -3.5897 -2.0001 0.9835
0.3040 -3.6409 -2.0011 0.9835
0.9464 -3.5301 -2.0017 0.9835
1.2577 -3.4322 -2.0021 0.9835
1.5591 -3.3069 -2.0024 0.9835
1.8481 -3.1551 -2.0027 0.9835
2.3801 -2.7774 -2.0033 0.9835
3.4670 -1.1736 -2.0048 0.9834
3.5582 -0.8598 -2.0049 0.9834
3.6209 -0.5390 -2.0050 0.9834
3.6594 0.1129 -2.0052 0.9834
3.3889 1.3855 -2.0052 0.9834
3.2517 1.6822 -2.0052 0.9834
3.0885 1.9654 -2.0050 0.9834
2.9007 2.2329 -2.0049 0.9834
2.6898 2.4825 -2.0048 0.9834
2.2055 2.9204 -2.0044 0.9834
1.0444 3.5054 -2.0033 0.9835
0.7275 3.5841 -2.0030 0.9835
0.4048 3.6341 -2.0027 0.9835
-0.5715 3.6099 -2.0018 0.9835
-1.2034 3.4497 -2.0011 0.9835
-1.7966 3.1800 -2.0004 0.9835
-2.3323 2.8093 -1.9998 0.9835
-0.8641 0.6039 -0.5774 0.9952
-0.9929 0.2564 -0.5617 0.9953
-1.0274 -0.0156 -0.5628 0.9953
-1.0090 -0.1981 -0.5632 0.9953
-0.9829 -0.2860 -0.5606 0.9953
-0.9716 -0.3796 -0.5713 0.9953
-2.9253 -2.1799 -1.9982 0.9835
-2.7195 -2.4323 -1.9983 0.9835
-2.4919 -2.6654 -1.9985 0.9835
-2.2444 -2.8774 -1.9987 0.9835
-1.9791 -3.0664 -1.9989 0.9835
-1.6979 -3.2311 -1.9992 0.9835
-1.4031 -3.3702 -1.9994 0.9835
-1.0971 -3.4824 -1.9997 0.9835
0.1901 -3.6484 -2.0010 0.9835
0.5149 -3.6175 -2.0013 0.9835
0.8356 -3.5577 -2.0016 0.9835
1.4549 -3.3538 -2.0023 0.9835
2.0283 -3.0429 -2.0029 0.9835
2.2920 -2.8503 -2.0032 0.9835
3.1457 -1.8698 -2.0043 0.9834
3.3003 -1.5819 -2.0045 0.9834
3.4286 -1.2813 -2.0047 0.9834
3.6022 -0.6519 -2.0050 0.9834
3.6467 0.3251 -2.0053 0.9834
3.6033 0.6491 -2.0053 0.9834
3.5310 0.9679 -2.0053 0.9834
3.3027 1.5798 -2.0052 0.9834
3.1485 1.8680 -2.0051 0.9834
2.9691 2.1412 -2.0050 0.9834
2.7661 2.3973 -2.0048 0.9834
2.2957 2.8502 -2.0044 0.9834
2.0321 3.0432 -2.0042 0.9834
0.1932 3.6511 -2.0025 0.9835
-0.1332 3.6532 -2.0022 0.9835
-0.4584 3.6262 -2.0019 0.9835
-1.0950 3.4859 -2.0012 0.9835
-1.4014 3.3737 -2.0009 0.9835
-1.6964 3.2348 -2.0005 0.9835
-2.2435 2.8810 -1.9999 0.9835
-2.4911 2.6690 -1.9996 0.9835
-2.9249 2.1833 -1.9991 0.9835
-0.8993 0.5537 -0.5785 0.9952
-0.9714 0.3805 -0.5714 0.9953
-1.0088 0.1989 -0.5631 0.9953
-1.0238 0.1083 -0.5639 0.9953
-1.0275 0.0165 -0.5628 0.9953
-1.0156 -0.1666 -0.5637 0.9953
-0.9572 -0.4396 -0.5769 0.9952
-0.8647 -0.6033 -0.5774 0.9952
-2.5739 -2.5862 -1.9984 0.9835
-2.3331 -2.8057 -1.9986 0.9835
-1.2053 -3.4462 -1.9996 0.9835
0.4016 -3.6316 -2.0012 0.9835
1.3494 -3.3974 -2.0022 0.9835
1.6473 -3.2640 -2.0025 0.9835
1.9322 -3.1046 -2.0028 0.9835
2.4538 -2.7127 -2.0034 0.9835
2.6863 -2.4834 -2.0037 0.9835
2.8975 -2.2342 -2.0040 0.9835
3.2491 -1.6842 -2.0044 0.9834
3.4973 -1.0803 -2.0048 0.9834
3.5800 -0.7641 -2.0050 0.9834
3.6341 -0.4418 -2.0051 0.9834
3.6218 0.5362 -2.0053 0.9834
3.5595 0.8571 -2.0053 0.9834
3.3505 1.4758 -2.0052 0.9834
3.2054 1.7687 -2.0051 0.9834
2.8397 2.3098 -2.0049 0.9834
2.1263 2.9784 -2.0043 0.9834
1.8519 3.1558 -2.0041 0.9835
1.5629 3.3080 -2.0038 0.9835
0.9500 3.5320 -2.0033 0.9835
0.6311 3.6021 -2.0029 0.9835
-0.0190 3.6558 -2.0023 0.9835
-0.3449 3.6389 -2.0020 0.9835
-0.6680 3.5931 -2.0017 0.9835
-1.2954 3.4161 -2.0010 0.9835
-1.5946 3.2864 -2.0007 0.9835
-2.1525 2.9498 -2.0000 0.9835
-2.4067 2.7457 -1.9997 0.9835
-2.6416 2.5197 -1.9995 0.9835
-2.8554 2.2737 -1.9992 0.9835
-0.9298 0.5005 -0.5783 0.9952
-0.9652 0.4132 -0.5751 0.9952
-0.9790 0.3193 -0.5640 0.9953
-1.0008 0.2300 -0.5624 0.9953
-0.9323 -0.4956 -0.5783 0.9952
-0.8841 -0.5766 -0.5781 0.9952
-2.8659 -2.2576 -1.9982 0.9835
-2.6533 -2.5045 -1.9984 0.9835
-2.4196 -2.7314 -1.9985 0.9835
-2.1665 -2.9366 -1.9988 0.9835
-1.6107 -3.2756 -1.9992 0.9835
-0.6863 -3.5867 -2.0001 0.9835
-0.0381 -3.6527 -2.0007 0.9835
0.2879 -3.6422 -2.0011 0.9835
0.9308 -3.5342 -2.0017 0.9835
1.5444 -3.3137 -2.0024 0.9835
2.6073 -2.5660 -2.0036 0.9835
2.8262 -2.3235 -2.0039 0.9835
3.0225 -2.0624 -2.0041 0.9835
3.1948 -1.7848 -2.0043 0.9834
3.5543 -0.8756 -2.0049 0.9834
3.6185 -0.5551 -2.0050 0.9834
3.6538 -0.2301 -2.0051 0.9834
3.6599 0.0967 -2.0052 0.9834
3.5038 1.0622 -2.0053 0.9834
3.3950 1.3704 -2.0052 0.9834
3.2591 1.6677 -2.0052 0.9834
3.0972 1.9517 -2.0051 0.9834
2.9106 2.2200 -2.0049 0.9834
2.4694 2.7014 -2.0046 0.9834
1.6655 3.2577 -2.0039 0.9835
1.3682 3.3928 -2.0036 0.9835
1.0599 3.5008 -2.0034 0.9835
-0.2311 3.6481 -2.0021 0.9835
-0.5554 3.6124 -2.0018 0.9835
-0.8753 3.5479 -2.0014 0.9835
-2.0594 3.0158 -2.0001 0.9835
-2.3198 2.8197 -1.9998 0.9835
-2.7831 2.3620 -1.9993 0.9835
-0.9756 0.3522 -0.5681 0.9953
-1.0145 0.1719 -0.5636 0.9953
-1.0243 -0.1029 -0.5639 0.9953
-0.9723 -0.3749 -0.5708 0.9953
-0.8469 -0.6253 -0.5766 0.9952
-1.9926 -3.0576 -1.9989 0.9835
-1.4180 -3.3639 -1.9994 0.9835
-1.1125 -3.4774 -1.9997 0.9835
-0.7980 -3.5633 -2.0000 0.9835
-0.4770 -3.6208 -2.0003 0.9835
0.1739 -3.6492 -2.0009 0.9835
0.4988 -3.6197 -2.0013 0.9835
0.8198 -3.5614 -2.0016 0.9835
1.1344 -3.4746 -2.0019 0.9835
1.4400 -3.3602 -2.0023 0.9835
1.7343 -3.2188 -2.0026 0.9835
2.5257 -2.6461 -2.0035 0.9835
2.7521 -2.4106 -2.0038 0.9835
3.1374 -1.8837 -2.0043 0.9834
3.2932 -1.5965 -2.0045 0.9834
3.6447 -0.3442 -2.0051 0.9834
3.6610 -0.0177 -2.0052 0.9834
3.5353 0.9522 -2.0053 0.9834
2.9786 2.1280 -2.0050 0.9834
2.7767 2.3851 -2.0048 0.9834
2.3083 2.8400 -2.0045 0.9834
1.7666 3.2042 -2.0040 0.9835
0.8549 3.5561 -2.0032 0.9835
0.5342 3.6176 -2.0029 0.9835
-0.7641 3.5737 -2.0016 0.9835
-1.0796 3.4907 -2.0012 0.9835
-1.6821 3.2423 -2.0006 0.9835
-2.4793 2.6800 -1.9996 0.9835
-0.9421 0.4750 -0.5779 0.9952
-0.9706 0.3851 -0.5719 0.9952
-0.9810 0.2910 -0.5605 0.9953
-1.0077 0.2033 -0.5630 0.9953
-1.0233 0.1128 -0.5639 0.9953
-1.0266 -0.0708 -0.5636 0.9953
-1.0164 -0.1621 -0.5637 0.9953
-0.9190 -0.5206 -0.5785 0.9952
-0.8675 -0.5996 -0.5776 0.9952
-2.8044 -2.3337 -1.9982 0.9835
-2.5853 -2.5748 -1.9984 0.9835
-1.8120 -3.1683 -1.9991 0.9835
-0.2661 -3.6428 -2.0005 0.9835
1.0252 -3.5082 -2.0018 0.9835
1.6328 -3.2713 -2.0025 0.9835
2.4417 -2.7235 -2.0034 0.9835
2.6753 -2.4953 -2.0037 0.9835
3.3805 -1.4028 -2.0046 0.9834
3.4925 -1.0958 -2.0048 0.9834
3.5766 -0.7800 -2.0049 0.9834
3.6241 0.5201 -2.0053 0.9834
3.5633 0.8413 -2.0053 0.9834
3.4740 1.1558 -2.0053 0.9834
2.8500 2.2972 -2.0049 0.9834
2.6335 2.5421 -2.0047 0.9834
2.3960 2.7665 -2.0045 0.9834
2.1395 2.9689 -2.0043 0.9834
1.5775 3.3010 -2.0038 0.9835
1.2766 3.4281 -2.0036 0.9835
0.3234 3.6421 -2.0026 0.9835
-0.3288 3.6404 -2.0020 0.9835
-0.9701 3.5229 -2.0013 0.9835
-1.2802 3.4218 -2.0010 0.9835
-2.1394 2.9594 -2.0000 0.9835
-2.8453 2.2864 -1.9992 0.9835
-0.8782 0.5850 -0.5780 0.9952
-1.0193 0.1447 -0.5639 0.9953
-1.0213 -0.1303 -0.5639 0.9953
-0.9673 -0.4031 -0.5740 0.9952
-0.9343 -0.4914 -0.5782 0.9952
-2.8759 -2.2449 -1.9982 0.9835
-2.6644 -2.4927 -1.9984 0.9835
-2.1795 -2.9270 -1.9987 0.9835
-1.6252 -3.2684 -1.9992 0.9835
-0.7022 -3.5836 -2.0001 0.9835
-0.3798 -3.6325 -2.0004 0.9835
0.5957 -3.6052 -2.0014 0.9835
0.9151 -3.5383 -2.0017 0.9835
1.5297 -3.3205 -2.0024 0.9835
1.8201 -3.1713 -2.0027 0.9835
2.0960 -2.9968 -2.0030 0.9835
3.3349 -1.5077 -2.0045 0.9834
3.6160 -0.5711 -2.0050 0.9834
3.5878 0.7296 -2.0053 0.9834
3.4010 1.3554 -2.0052 0.9834
3.1058 1.9379 -2.0051 0.9834
2.4814 2.6904 -2.0046 0.9834
1.9634 3.0878 -2.0042 0.9834
1.6800 3.2503 -2.0039 0.9835
1.3832 3.3867 -2.0037 0.9835
1.0754 3.4961 -2.0034 0.9835
0.7592 3.5775 -2.0031 0.9835
-0.5394 3.6148 -2.0018 0.9835
-1.1727 3.4603 -2.0011 0.9835
-1.4765 3.3414 -2.0008 0.9835
-1.7683 3.1959 -2.0005 0.9835
-2.0460 3.0249 -2.0002 0.9835
-2.5502 2.6125 -1.9996 0.9835
-2.7726 2.3743 -1.9993 0.9835
-0.8584 0.6113 -0.5772 0.9952
-0.9116 0.5336 -0.5785 0.9952
-0.9750 0.3569 -0.5686 0.9953
-1.0136 0.1764 -0.5635 0.9953
-1.0258 0.0853 -0.5638 0.9953
-1.0247 -0.0983 -0.5638 0.9953
-1.0110 -0.1892 -0.5633 0.9953
-0.9859 -0.2774 -0.5610 0.9953
-0.9731 -0.3703 -0.5702 0.9953
-2.7409 -2.4081 -1.9983 0.9835
-2.5154 -2.6432 -1.9985 0.9835
-2.2698 -2.8573 -1.9987 0.9835
-1.7264 -3.2159 -1.9991 0.9835
-1.4329 -3.3575 -1.9994 0.9835
-0.4931 -3.6187 -2.0003 0.9835
-0.1684 -3.6488 -2.0006 0.9835
0.1578 -3.6499 -2.0009 0.9835
0.8040 -3.5650 -2.0016 0.9835
1.1190 -3.4796 -2.0019 0.9835
1.7200 -3.2265 -2.0026 0.9835
2.5140 -2.6572 -2.0035 0.9835
2.9469 -2.1688 -2.0040 0.9835
3.1290 -1.8976 -2.0043 0.9834
3.2861 -1.6111 -2.0045 0.9834
3.4170 -1.3117 -2.0047 0.9834
3.5963 -0.6838 -2.0050 0.9834
3.6431 -0.3603 -2.0051 0.9834
3.6495 0.2927 -2.0052 0.9834
3.4417 1.2485 -2.0052 0.9834
2.9880 2.1148 -2.0050 0.9834
2.3209 2.8297 -2.0045 0.9834
2.0590 3.0251 -2.0042 0.9834
1.7808 3.1963 -2.0040 0.9835
0.8707 3.5523 -2.0032 0.9835
0.5503 3.6152 -2.0029 0.9835
0.2256 3.6493 -2.0026 0.9835
-0.1008 3.6543 -2.0022 0.9835
-0.4263 3.6301 -2.0019 0.9835
-1.0641 3.4955 -2.0012 0.9835
-1.3714 3.3861 -2.0009 0.9835
-1.9506 3.0875 -2.0003 0.9835
-2.6972 2.4599 -1.9994 0.9835
-2.9055 2.2092 -1.9991 0.9835
-0.9402 0.4793 -0.5780 0.9952
-0.9806 0.2957 -0.5610 0.9953
-1.0066 0.2078 -0.5630 0.9953
-1.0228 0.1173 -0.5639 0.9953
-1.0276 0.0256 -0.5630 0.9953
-0.9959 -0.2469 -0.5620 0.9953
-0.9605 -0.4309 -0.5766 0.9952
-0.9213 -0.5165 -0.5785 0.9952
-0.8703 -0.5958 -0.5777 0.9952
-1.8260 -3.1603 -1.9990 0.9835
-1.5370 -3.3110 -1.9993 0.9835
-1.2357 -3.4353 -1.9996 0.9835
0.6922 -3.5881 -2.0015 0.9835
1.3192 -3.4092 -2.0021 0.9835
1.9046 -3.1215 -2.0028 0.9835
2.6642 -2.5071 -2.0037 0.9835
3.5731 -0.7958 -2.0049 0.9834
3.6580 -0.1483 -2.0052 0.9834
3.6568 0.1786 -2.0052 0.9834
3.6264 0.5041 -2.0053 0.9834
3.3634 1.4461 -2.0052 0.9834
3.2209 1.7403 -2.0051 0.9834
3.0527 2.0205 -2.0050 0.9834
2.8601 2.2846 -2.0049 0.9834
1.2918 3.4224 -2.0036 0.9835
0.9813 3.5235 -2.0033 0.9835
0.0134 3.6559 -2.0023 0.9835
-0.3127 3.6419 -2.0020 0.9835
-1.2651 3.4275 -2.0010 0.9835
-1.5655 3.3004 -2.0007 0.9835
-1.8533 3.1471 -2.0004 0.9835
-2.3823 2.7669 -1.9998 0.9835
-2.6192 2.5430 -1.9995 0.9835
-2.8352 2.2990 -1.9992 0.9835
-0.9254 0.5088 -0.5784 0.9952
-0.9631 0.4225 -0.5760 0.9952
-0.9782 0.3286 -0.5652 0.9953
-1.0186 0.1492 -0.5638 0.9953
-1.0272 0.0577 -0.5635 0.9953
-1.0276 -0.0341 -0.5631 0.9953
-1.0046 -0.2160 -0.5628 0.9953
-0.9801 -0.3044 -0.5621 0.9953
-0.9682 -0.3985 -0.5734 0.9952
-2.1925 -2.9173 -1.9987 0.9835
-1.6396 -3.2612 -1.9992 0.9835
-0.7181 -3.5804 -2.0001 0.9835
-0.3959 -3.6308 -2.0004 0.9835
0.2556 -3.6445 -2.0010 0.9835
0.5797 -3.6078 -2.0013 0.9835
0.8994 -3.5423 -2.0017 0.9835
1.2119 -3.4485 -2.0020 0.9835
1.8060 -3.1793 -2.0027 0.9835
2.0827 -3.0061 -2.0030 0.9835
2.3429 -2.8087 -2.0033 0.9835
3.0041 -2.0891 -2.0041 0.9835
3.3282 -1.5225 -2.0045 0.9834
3.4511 -1.2196 -2.0047 0.9834
3.6134 -0.5871 -2.0050 0.9834
3.6516 -0.2625 -2.0051 0.9834
3.6403 0.3905 -2.0053 0.9834
3.5910 0.7136 -2.0053 0.9834
3.2738 1.6388 -2.0052 0.9834
3.1144 1.9242 -2.0051 0.9834
2.9302 2.1942 -2.0049 0.9834
2.4933 2.6794 -2.0046 0.9834
1.9771 3.0791 -2.0042 0.9834
1.6944 3.2428 -2.0039 0.9835
1.3982 3.3806 -2.0037 0.9835
1.0909 3.4913 -2.0034 0.9835
0.4531 3.6285 -2.0028 0.9835
-0.8438 3.5555 -2.0015 0.9835
-1.1574 3.4655 -2.0011 0.9835
-1.4617 3.3479 -2.0008 0.9835
-1.7542 3.2037 -2.0005 0.9835
-2.0326 3.0340 -2.0002 0.9835
-2.5386 2.6238 -1.9996 0.9835
-0.9093 0.5376 -0.5785 0.9952
-0.9743 0.3616 -0.5692 0.9953
-0.9887 0.2694 -0.5612 0.9953
-1.0254 0.0898 -0.5638 0.9953
1.7301 3.0090 -2.0039 0.9841
0.2608 3.4587 -2.0025 0.9841
-0.0487 3.4676 -2.0022 0.9841
-0.3578 3.4489 -2.0019 0.9841
-0.6639 3.4027 -2.0016 0.9841
-0.9646 3.3294 -2.0013 0.9841
-1.5403 3.1041 -2.0007 0.9841
-2.0667 2.7802 -2.0001 0.9841
-2.3062 2.5844 -1.9998 0.9841
-2.5271 2.3681 -1.9995 0.9841
-0.7744 0.6055 -0.5676 0.9955
-0.8161 0.5281 -0.5612 0.9955
-0.8600 0.4532 -0.5612 0.9955
-0.8932 0.3731 -0.5588 0.9955
-0.9346 0.2061 -0.5525 0.9956
-0.9513 0.1222 -0.5538 0.9956
-0.9573 -0.0488 -0.5534 0.9956
-0.9496 -0.1340 -0.5537 0.9956
-0.9314 -0.2176 -0.5522 0.9956
-0.9060 -0.2991 -0.5508 0.9956
-0.8545 -0.4640 -0.5614 0.9955
-0.7682 -0.6163 -0.5686 0.9955
-1.7727 -2.9744 -1.9991 0.9841
0.3037 -3.4527 -2.0011 0.9841
0.9127 -3.3448 -2.0017 0.9841
1.4929 -3.1304 -2.0024 0.9841
2.2694 -2.6246 -2.0032 0.9841
2.8844 -1.9309 -2.0040 0.9841
3.0455 -1.6661 -2.0042 0.9841
1.8568 -0.8099 -1.1695 0.9907
2.0299 -0.2930 -1.1841 0.9906
2.0351 -0.1101 -1.1767 0.9906
2.0319 0.0717 -1.1739 0.9907
2.0343 0.2548 -1.1837 0.9906
1.9885 0.4320 -1.1749 0.9906
1.9201 0.6007 -1.1616 0.9908
3.0773 1.6093 -2.0050 0.9841
2.9214 1.8773 -2.0049 0.9841
2.7421 2.1302 -2.0047 0.9841
2.5410 2.3661 -2.0046 0.9841
2.3196 2.5831 -2.0044 0.9841
2.0798 2.7794 -2.0042 0.9841
1.5525 3.1040 -2.0038 0.9841
0.9760 3.3296 -2.0032 0.9841
0.0596 3.4677 -2.0023 0.9841
-0.5573 3.4220 -2.0017 0.9841
-1.4427 3.1509 -2.0008 0.9841
-2.2244 2.6553 -1.9999 0.9841
-0.8014 0.5548 -0.5627 0.9955
-0.8458 0.4801 -0.5615 0.9955
-0.8828 0.4016 -0.5599 0.9955
-0.9038 0.3173 -0.5531 0.9956
-0.9264 0.2349 -0.5518 0.9956
-0.9466 0.1518 -0.5535 0.9956
-0.9575 -0.0188 -0.5529 0.9956
-0.9389 -0.1886 -0.5529 0.9956
-0.8978 -0.3554 -0.5575 0.9956
-0.8679 -0.4367 -0.5609 0.9955
-2.5698 -2.3191 -1.9985 0.9841
-2.3529 -2.5392 -1.9987 0.9841
-2.1172 -2.7392 -1.9988 0.9841
-1.5972 -3.0725 -1.9993 0.9841
-1.3169 -3.2032 -1.9995 0.9841
-1.0261 -3.3083 -1.9998 0.9841
-0.7271 -3.3871 -2.0001 0.9841
-0.1137 -3.4634 -2.0007 0.9841
0.5036 -3.4296 -2.0013 0.9841
1.1053 -3.2866 -2.0019 0.9841
1.6722 -3.0388 -2.0026 0.9841
1.9369 -2.8780 -2.0029 0.9841
2.4181 -2.4888 -2.0034 0.9841
2.6308 -2.2634 -2.0037 0.9841
1.9519 -0.5274 -1.1673 0.9907
2.0178 -0.3559 -1.1830 0.9906
2.0370 -0.1741 -1.1803 0.9906
2.0215 0.0081 -1.1671 0.9907
2.0372 0.1907 -1.1813 0.9906
1.9459 0.5427 -1.1663 0.9907
1.8677 0.7057 -1.1527 0.9908
3.1261 1.5124 -2.0050 0.9841
2.6137 2.2857 -2.0046 0.9841
2.3993 2.5095 -2.0045 0.9841
1.9148 2.8952 -2.0041 0.9841
1.6488 3.0541 -2.0038 0.9841
1.3696 3.1886 -2.0036 0.9841
1.0796 3.2977 -2.0033 0.9841
0.7810 3.3803 -2.0031 0.9841
0.4763 3.4360 -2.0028 0.9841
-0.4501 3.4379 -2.0018 0.9841
-0.7548 3.3836 -2.0015 0.9841
-1.3436 3.1946 -2.0009 0.9841
-2.1404 2.7237 -2.0000 0.9841
-2.3745 2.5216 -1.9997 0.9841
-2.5896 2.2994 -1.9995 0.9841
-0.8992 0.3476 -0.5566 0.9956
-0.9170 0.2632 -0.5508 0.9956
-0.9406 0.1811 -0.5531 0.9956
