ply
format ascii 1.0
element vertex 1595
property float32 x
property float32 y
property float32 z
property float32 I
end_header
-4.2796 -3.5908 -1.9978 0.9765
-3.9432 -3.9592 -1.9982 0.9765
-3.5752 -4.2961 -1.9987 0.9765
-2.3121 -5.0935 -2.0004 0.9765
-1.8491 -5.2809 -2.0009 0.9765
-1.3711 -5.4263 -2.0015 0.9765
-0.3854 -5.5868 -2.0026 0.9765
0.6137 -5.5695 -2.0037 0.9765
1.1084 -5.4940 -2.0043 0.9765
2.0679 -5.2122 -2.0053 0.9765
3.3762 -4.4816 -2.0065 0.9764
3.7631 -4.1633 -2.0069 0.9764
4.9838 -2.5857 -2.0078 0.9764
5.3644 -1.6592 -2.0080 0.9764
5.5739 -0.6797 -2.0080 0.9764
5.6120 -0.1798 -2.0079 0.9764
5.4579 1.3120 -2.0074 0.9764
5.1364 2.2602 -2.0068 0.9764
4.6513 3.1357 -2.0060 0.9765
4.0183 3.9105 -2.0051 0.9765
3.2579 4.5599 -2.0041 0.9765
2.8375 4.8310 -2.0036 0.9765
2.3946 5.0635 -2.0030 0.9765
-1.9791 5.2251 -1.9981 0.9765
-2.4367 5.0266 -1.9976 0.9765
-2.8747 4.7882 -1.9972 0.9766
-3.2897 4.5118 -1.9968 0.9766
-3.6784 4.1997 -1.9965 0.9766
-4.0377 3.8542 -1.9961 0.9766
-4.3648 3.4783 -1.9959 0.9766
-4.9124 2.6469 -1.9955 0.9766
-5.1285 2.1980 -1.9954 0.9766
-5.3040 1.7318 -1.9953 0.9766
-5.4372 1.2518 -1.9952 0.9766
-5.5273 0.7618 -1.9953 0.9766
-5.5734 0.2658 -1.9953 0.9766
-5.5752 -0.2324 -1.9955 0.9766
-5.4463 -1.2195 -1.9959 0.9766
-5.3165 -1.7007 -1.9961 0.9766
-5.1445 -2.1685 -1.9964 0.9766
-4.6790 -3.0492 -1.9972 0.9766
-2.9069 -4.7767 -1.9996 0.9765
-2.4699 -5.0183 -2.0002 0.9765
-2.0130 -5.2200 -2.0007 0.9765
-1.0541 -5.4978 -2.0019 0.9765
-0.5597 -5.5715 -2.0024 0.9765
-0.0605 -5.6008 -2.0030 0.9765
0.4394 -5.5854 -2.0035 0.9765
0.9361 -5.5254 -2.0041 0.9765
1.9039 -5.2738 -2.0051 0.9765
3.2343 -4.5846 -2.0064 0.9764
3.6310 -4.2786 -2.0068 0.9764
4.3347 -3.5665 -2.0074 0.9764
4.6361 -3.1660 -2.0076 0.9764
5.4517 -1.3451 -2.0080 0.9764
5.5499 -0.8535 -2.0080 0.9764
5.6038 -0.3550 -2.0080 0.9764
5.6128 0.1462 -2.0078 0.9764
5.5769 0.6462 -2.0077 0.9764
5.4964 1.1409 -2.0075 0.9764
5.3721 1.6264 -2.0072 0.9764
5.2048 2.0987 -2.0069 0.9764
4.9960 2.5542 -2.0065 0.9764
4.4609 3.3998 -2.0057 0.9765
3.7840 4.1364 -2.0048 0.9765
2.9873 4.7404 -2.0037 0.9765
2.5519 4.9866 -2.0032 0.9765
1.6243 5.3577 -2.0021 0.9765
1.1397 5.4796 -2.0015 0.9765
-0.3514 5.5812 -1.9998 0.9765
-2.7239 4.8761 -1.9973 0.9766
-3.1473 4.6127 -1.9969 0.9766
-3.5456 4.3128 -1.9966 0.9766
-4.2542 3.6131 -1.9960 0.9766
-4.5589 3.2189 -1.9957 0.9766
-4.8274 2.7992 -1.9955 0.9766
-5.0575 2.3572 -1.9954 0.9766
-5.5623 0.4398 -1.9953 0.9766
-5.2094 -2.0065 -1.9963 0.9766
-4.4948 -3.3160 -1.9975 0.9766
-4.1821 -3.7045 -1.9979 0.9765
-3.8359 -4.0638 -1.9984 0.9765
-3.4590 -4.3908 -1.9989 0.9765
-2.6252 -4.9382 -2.0000 0.9765
-1.7070 -5.3291 -2.0011 0.9765
-1.2252 -5.4616 -2.0017 0.9765
-0.2355 -5.5956 -2.0028 0.9765
0.7629 -5.5514 -2.0039 0.9765
3.0893 -4.6831 -2.0063 0.9764
3.4953 -4.3897 -2.0066 0.9764
3.8736 -4.0611 -2.0070 0.9764
4.5347 -3.3092 -2.0075 0.9764
4.8123 -2.8918 -2.0077 0.9764
5.0515 -2.4512 -2.0079 0.9764
5.2502 -1.9910 -2.0080 0.9764
5.4070 -1.5148 -2.0080 0.9764
5.5206 -1.0265 -2.0080 0.9764
5.5900 -0.5300 -2.0080 0.9764
5.4205 1.4578 -2.0073 0.9764
5.0737 2.3970 -2.0067 0.9764
4.8387 2.8395 -2.0063 0.9764
4.5653 3.2591 -2.0059 0.9765
3.5370 4.3483 -2.0045 0.9765
3.1343 4.6453 -2.0039 0.9765
2.2578 5.1254 -2.0028 0.9765
1.7911 5.3049 -2.0023 0.9765
0.8196 5.5355 -2.0011 0.9765
-2.1183 5.1698 -1.9979 0.9765
-2.5704 4.9592 -1.9975 0.9766
-3.0019 4.7091 -1.9971 0.9766
-3.4093 4.4218 -1.9967 0.9766
-3.7895 4.0994 -1.9964 0.9766
-4.4563 3.3599 -1.9958 0.9766
-5.3485 1.5889 -1.9953 0.9766
-5.5786 0.1163 -1.9954 0.9766
-5.4119 -1.3652 -1.9959 0.9766
-5.2693 -1.8427 -1.9962 0.9766
-4.8597 -2.7506 -1.9969 0.9766
-4.5959 -3.1737 -1.9973 0.9766
-4.2954 -3.5718 -1.9978 0.9765
-3.9607 -3.9416 -1.9982 0.9765
-3.5942 -4.2802 -1.9987 0.9765
-3.1989 -4.5849 -1.9992 0.9765
-1.8725 -5.2726 -2.0009 0.9765
-1.3952 -5.4201 -2.0015 0.9765
-0.9064 -5.5246 -2.0020 0.9765
-0.4102 -5.5849 -2.0026 0.9765
2.0447 -5.2213 -2.0052 0.9765
2.5029 -5.0192 -2.0057 0.9765
2.9412 -4.7770 -2.0061 0.9765
3.3562 -4.4965 -2.0065 0.9764
3.7446 -4.1799 -2.0069 0.9764
4.1031 -3.8299 -2.0072 0.9764
4.7195 -3.0406 -2.0077 0.9764
5.1854 -2.1540 -2.0080 0.9764
5.4858 -1.1985 -2.0080 0.9764
5.6112 -0.2047 -2.0079 0.9764
5.3263 1.7698 -2.0071 0.9764
5.1464 2.2374 -2.0068 0.9764
4.9254 2.6871 -2.0064 0.9764
4.6652 3.1151 -2.0060 0.9765
4.3678 3.5180 -2.0056 0.9765
4.0357 3.8926 -2.0051 0.9765
3.2782 4.5455 -2.0041 0.9765
2.8589 4.8184 -2.0036 0.9765
1.9562 5.2468 -2.0025 0.9765
0.9923 5.5078 -2.0013 0.9765
-0.5009 5.5693 -1.9996 0.9765
-0.9954 5.5009 -1.9991 0.9765
-1.4817 5.3888 -1.9986 0.9765
-1.9559 5.2339 -1.9981 0.9765
-2.8535 4.8010 -1.9972 0.9766
-3.2697 4.5264 -1.9968 0.9766
-3.6598 4.2160 -1.9965 0.9766
-4.3493 3.4976 -1.9959 0.9766
-4.9006 2.6687 -1.9955 0.9766
-5.1188 2.2208 -1.9954 0.9766
-5.2962 1.7553 -1.9953 0.9766
-5.5238 0.7863 -1.9953 0.9766
-5.5359 -0.7043 -1.9956 0.9766
-5.3240 -1.6771 -1.9961 0.9766
-4.9429 -2.5972 -1.9968 0.9766
-4.0816 -3.8156 -1.9981 0.9765
-2.0361 -5.2110 -2.0007 0.9765
-1.5637 -5.3733 -2.0013 0.9765
-0.5844 -5.5689 -2.0024 0.9765
0.9116 -5.5294 -2.0041 0.9765
1.4015 -5.4275 -2.0046 0.9765
2.3447 -5.0946 -2.0055 0.9765
2.7903 -4.8662 -2.0060 0.9765
3.2139 -4.5989 -2.0064 0.9764
3.6120 -4.2947 -2.0068 0.9764
4.8882 -2.7618 -2.0078 0.9764
5.6021 -0.3799 -2.0080 0.9764
5.3793 1.6026 -2.0072 0.9764
3.4189 4.4412 -2.0043 0.9765
3.0083 4.7272 -2.0038 0.9765
1.1640 5.4746 -2.0015 0.9765
0.1726 5.5912 -2.0004 0.9765
-0.3267 5.5827 -1.9998 0.9765
-1.3127 5.4330 -1.9988 0.9765
-3.1269 4.6267 -1.9970 0.9766
-3.5265 4.3285 -1.9966 0.9766
-4.5446 3.2391 -1.9957 0.9766
-4.8150 2.8206 -1.9955 0.9766
-5.0470 2.3796 -1.9954 0.9766
-5.2389 1.9199 -1.9953 0.9766
-5.3891 1.4450 -1.9953 0.9766
-5.4965 0.9585 -1.9953 0.9766
-5.5603 0.4645 -1.9953 0.9766
-5.5798 -0.0333 -1.9954 0.9766
-5.5550 -0.5309 -1.9956 0.9766
-5.2182 -1.9834 -1.9963 0.9766
-4.7845 -2.8800 -1.9970 0.9766
-4.5095 -3.2960 -1.9974 0.9766
-2.6471 -4.9264 -1.9999 0.9765
-2.1977 -5.1443 -2.0005 0.9765
-1.7306 -5.3213 -2.0011 0.9765
-0.7580 -5.5473 -2.0022 0.9765
0.2398 -5.5969 -2.0033 0.9765
2.1842 -5.1649 -2.0054 0.9765
3.0684 -4.6967 -2.0062 0.9764
4.2045 -3.7187 -2.0073 0.9764
4.5200 -3.3292 -2.0075 0.9764
4.7994 -2.9131 -2.0077 0.9764
5.2413 -2.0142 -2.0080 0.9764
5.4003 -1.5387 -2.0080 0.9764
5.5966 0.4468 -2.0078 0.9764
5.4270 1.4337 -2.0073 0.9764
5.2767 1.9118 -2.0070 0.9764
3.1549 4.6314 -2.0040 0.9765
2.7285 4.8930 -2.0034 0.9765
2.2806 5.1154 -2.0029 0.9765
1.8147 5.2969 -2.0023 0.9765
-0.1521 5.5907 -2.0000 0.9765
-2.0954 5.1792 -1.9980 0.9765
-2.9810 4.7225 -1.9971 0.9766
-3.3897 4.4369 -1.9967 0.9766
-3.7713 4.1161 -1.9964 0.9766
-4.1228 3.7628 -1.9961 0.9766
-4.4414 3.3796 -1.9958 0.9766
-4.9703 2.5362 -1.9954 0.9766
-5.1764 2.0827 -1.9953 0.9766
-5.3414 1.6126 -1.9953 0.9766
-5.5688 -0.3571 -1.9955 0.9766
-5.5152 -0.8525 -1.9957 0.9766
-5.4178 -1.3411 -1.9959 0.9766
-5.2773 -1.8193 -1.9962 0.9766
-5.0949 -2.2831 -1.9965 0.9766
-4.6099 -3.1533 -1.9973 0.9766
-4.3112 -3.5526 -1.9977 0.9765
-3.6131 -4.2642 -1.9987 0.9765
-1.8958 -5.2642 -2.0009 0.9765
-0.9309 -5.5204 -2.0020 0.9765
0.0648 -5.6011 -2.0031 0.9765
0.5643 -5.5745 -2.0037 0.9765
1.0596 -5.5035 -2.0042 0.9765
1.5466 -5.3884 -2.0047 0.9765
2.4806 -5.0302 -2.0057 0.9765
2.9200 -4.7900 -2.0061 0.9765
3.3362 -4.5113 -2.0065 0.9764
3.7260 -4.1965 -2.0069 0.9764
4.0860 -3.8480 -2.0072 0.9764
4.9606 -2.6298 -2.0078 0.9764
5.1758 -2.1770 -2.0080 0.9764
5.5676 -0.7291 -2.0080 0.9764
5.5609 0.7708 -2.0076 0.9764
5.4694 1.2636 -2.0074 0.9764
5.3341 1.7462 -2.0071 0.9764
5.1563 2.2146 -2.0068 0.9764
4.6790 3.0943 -2.0061 0.9765
4.3834 3.4986 -2.0056 0.9765
4.0529 3.8748 -2.0052 0.9765
3.2983 4.5309 -2.0041 0.9765
2.8803 4.8058 -2.0036 0.9765
2.4395 5.0421 -2.0031 0.9765
1.9795 5.2382 -2.0025 0.9765
1.0167 5.5034 -2.0014 0.9765
-1.4578 5.3954 -1.9986 0.9765
-2.3921 5.0482 -1.9977 0.9765
-3.2496 4.5409 -1.9968 0.9766
-4.0034 3.8900 -1.9962 0.9766
-4.6297 3.1160 -1.9957 0.9766
-4.8887 2.6904 -1.9955 0.9766
-5.1089 2.2434 -1.9954 0.9766
-5.2884 1.7788 -1.9953 0.9766
-5.5708 0.3152 -1.9953 0.9766
-5.5770 -0.1829 -1.9955 0.9766
-5.1634 -2.1227 -1.9964 0.9766
-4.9543 -2.5753 -1.9968 0.9766
-4.7058 -3.0075 -1.9972 0.9766
-4.4198 -3.4159 -1.9976 0.9765
-2.5143 -4.9960 -2.0001 0.9765
-2.0592 -5.2018 -2.0007 0.9765
0.8870 -5.5333 -2.0040 0.9765
1.3774 -5.4336 -2.0046 0.9765
2.7687 -4.8785 -2.0060 0.9765
3.1934 -4.6130 -2.0064 0.9764
4.3029 -3.6047 -2.0073 0.9764
5.2935 -1.8730 -2.0080 0.9764
5.6139 0.0964 -2.0079 0.9764
5.5825 0.5967 -2.0077 0.9764
5.3864 1.5787 -2.0072 0.9764
5.2233 2.0525 -2.0069 0.9764
5.0185 2.5098 -2.0066 0.9764
4.4909 3.3602 -2.0058 0.9765
3.8207 4.1028 -2.0048 0.9765
3.4386 4.4261 -2.0043 0.9765
3.0293 4.7139 -2.0038 0.9765
0.1975 5.5904 -2.0004 0.9765
-0.3019 5.5842 -1.9999 0.9765
-1.2886 5.4388 -1.9988 0.9765
-3.1064 4.6406 -1.9970 0.9766
-3.5072 4.3442 -1.9966 0.9766
-4.8024 2.8419 -1.9955 0.9766
-5.0364 2.4020 -1.9954 0.9766
-5.2303 1.9432 -1.9953 0.9766
-5.3826 1.4689 -1.9953 0.9766
-0.9971 5.1207 -1.9992 0.9779
-2.3156 4.6709 -1.9979 0.9779
-4.1024 3.2102 -1.9962 0.9779
-4.8048 2.0090 -1.9958 0.9779
-5.1651 0.6653 -1.9957 0.9779
-5.2040 0.2019 -1.9958 0.9779
-5.2016 -0.2631 -1.9959 0.9779
-5.0731 -1.1833 -1.9963 0.9779
-4.7834 -2.0664 -1.9968 0.9779
-4.3417 -2.8845 -1.9975 0.9779
-4.0679 -3.2609 -1.9979 0.9779
-3.7616 -3.6115 -1.9984 0.9779
-2.6732 -4.4817 -1.9998 0.9779
-2.2634 -4.7035 -2.0003 0.9779
-1.8353 -4.8879 -2.0008 0.9779
-1.3924 -5.0335 -2.0014 0.9779
-0.4761 -5.2036 -2.0024 0.9779
-0.0101 -5.2267 -2.0030 0.9779
1.3750 -5.0466 -2.0045 0.9778
1.8201 -4.9050 -2.0049 0.9778
3.7634 -3.6413 -2.0068 0.9778
4.0737 -3.2915 -2.0070 0.9778
4.3515 -2.9154 -2.0072 0.9778
4.8009 -2.0961 -2.0075 0.9778
5.1848 -0.7503 -2.0076 0.9778
5.2351 0.1828 -2.0074 0.9778
5.1975 0.6490 -2.0073 0.9778
5.1184 1.1099 -2.0070 0.9778
4.8385 2.0011 -2.0065 0.9778
4.6399 2.4243 -2.0062 0.9778
4.4044 2.8280 -2.0058 0.9778
4.1338 3.2089 -2.0054 0.9778
3.8303 3.5641 -2.0050 0.9778
3.1346 4.1860 -2.0041 0.9778
2.3398 4.6740 -2.0030 0.9779
1.9131 4.8628 -2.0025 0.9779
1.4713 5.0127 -2.0020 0.9779
1.0181 5.1226 -2.0015 0.9779
0.5570 5.1916 -2.0009 0.9779
-0.8367 5.1498 -1.9994 0.9779
-2.5825 4.5280 -1.9976 0.9779
-2.9755 4.2788 -1.9972 0.9779
-3.3447 3.9957 -1.9969 0.9779
-3.6872 3.6809 -1.9966 0.9779
-4.0003 3.3369 -1.9963 0.9779
-4.5287 2.5725 -1.9959 0.9779
-4.7398 2.1582 -1.9958 0.9779
-5.0475 1.2816 -1.9957 0.9779
-5.1417 0.8263 -1.9957 0.9779
-5.1951 0.3644 -1.9957 0.9779
-5.2072 -0.1004 -1.9959 0.9779
-5.1074 -1.0242 -1.9962 0.9779
-4.9962 -1.4758 -1.9964 0.9779
-4.8454 -1.9159 -1.9967 0.9779
-4.4294 -2.7472 -1.9974 0.9779
-4.1675 -3.1320 -1.9978 0.9779
-3.8723 -3.4919 -1.9982 0.9779
-3.5462 -3.8243 -1.9987 0.9779
-2.4090 -4.6301 -2.0001 0.9779
-1.9870 -4.8278 -2.0006 0.9779
-0.6384 -5.1857 -2.0022 0.9779
0.2933 -5.2193 -2.0033 0.9779
0.7578 -5.1736 -2.0038 0.9779
1.2166 -5.0867 -2.0043 0.9778
1.6658 -4.9591 -2.0048 0.9778
2.1019 -4.7918 -2.0052 0.9778
2.5215 -4.5861 -2.0056 0.9778
2.9211 -4.3438 -2.0060 0.9778
3.2974 -4.0666 -2.0063 0.9778
3.6476 -3.7569 -2.0067 0.9778
3.9687 -3.4170 -2.0069 0.9778
4.2581 -3.0498 -2.0072 0.9778
4.5136 -2.6581 -2.0073 0.9778
4.7330 -2.2450 -2.0075 0.9778
4.9146 -1.8140 -2.0076 0.9778
5.2195 -0.4482 -2.0076 0.9778
5.2384 0.0192 -2.0075 0.9778
5.2154 0.4863 -2.0073 0.9778
5.1508 0.9495 -2.0071 0.9778
3.2641 4.0863 -2.0042 0.9778
1.6274 4.9647 -2.0022 0.9779
0.7190 5.1721 -2.0011 0.9779
0.2547 5.2143 -2.0006 0.9779
-1.5832 4.9692 -1.9986 0.9779
-2.4399 4.6068 -1.9977 0.9779
-3.5706 3.7945 -1.9967 0.9779
-3.8943 3.4604 -1.9964 0.9779
-4.1869 3.0989 -1.9962 0.9779
-4.4462 2.7129 -1.9960 0.9779
-5.1367 -0.8641 -1.9961 0.9779
-4.9026 -1.7634 -1.9966 0.9779
-4.5128 -2.6073 -1.9973 0.9779
-3.6637 -3.7113 -1.9985 0.9779
-3.3188 -4.0242 -1.9990 0.9779
-2.9474 -4.3052 -1.9994 0.9779
-2.5523 -4.5521 -1.9999 0.9779
-1.2570 -5.0694 -2.0015 0.9779
-0.3365 -5.2149 -2.0026 0.9779
0.1300 -5.2255 -2.0031 0.9779
0.5957 -5.1944 -2.0036 0.9779
1.9511 -4.8547 -2.0050 0.9778
2.7837 -4.4326 -2.0059 0.9778
3.5282 -3.8688 -2.0066 0.9778
3.8598 -3.5392 -2.0068 0.9778
4.1606 -3.1812 -2.0071 0.9778
4.4282 -2.7977 -2.0073 0.9778
5.0117 -1.5258 -2.0076 0.9778
5.2030 -0.6110 -2.0076 0.9778
4.0460 3.3184 -2.0053 0.9778
3.3905 3.9827 -2.0044 0.9778
2.2135 4.7346 -2.0029 0.9779
1.7819 4.9119 -2.0024 0.9779
1.3363 5.0499 -2.0018 0.9779
0.8803 5.1476 -2.0013 0.9779
-1.4273 5.0166 -1.9988 0.9779
-2.2949 4.6811 -1.9979 0.9779
-2.7028 4.4569 -1.9975 0.9779
-3.0890 4.1973 -1.9971 0.9779
-3.4505 3.9044 -1.9968 0.9779
-4.0882 3.2283 -1.9962 0.9779
-4.3594 2.8505 -1.9960 0.9779
-4.5959 2.4501 -1.9959 0.9779
-4.7958 2.0303 -1.9958 0.9779
-4.9577 1.5944 -1.9957 0.9779
-5.0800 1.1458 -1.9957 0.9779
-5.2031 0.2250 -1.9958 0.9779
-5.2027 -0.2400 -1.9959 0.9779
-5.1610 -0.7031 -1.9961 0.9779
-5.0782 -1.1608 -1.9963 0.9779
-4.7925 -2.0452 -1.9968 0.9779
-3.7776 -3.5947 -1.9983 0.9779
-2.6930 -4.4698 -1.9998 0.9779
-2.2842 -4.6934 -2.0003 0.9779
2.2298 -4.7340 -2.0053 0.9778
3.0366 -4.2641 -2.0061 0.9778
3.4054 -3.9770 -2.0064 0.9778
4.0590 -3.3095 -2.0070 0.9778
4.3385 -2.9346 -2.0072 0.9778
4.7916 -2.1174 -2.0075 0.9778
4.9615 -1.6816 -2.0076 0.9778
5.1814 -0.7733 -2.0076 0.9778
5.2296 -0.3081 -2.0075 0.9778
5.2359 0.1596 -2.0074 0.9778
5.2004 0.6259 -2.0073 0.9778
5.1233 1.0872 -2.0071 0.9778
4.6507 2.4037 -2.0062 0.9778
4.1480 3.1906 -2.0054 0.9778
2.3605 4.6636 -2.0031 0.9779
1.0408 5.1181 -2.0015 0.9779
-0.3510 5.2069 -1.9999 0.9779
-3.3270 4.0105 -1.9969 0.9779
-3.6709 3.6972 -1.9966 0.9779
-3.9855 3.3546 -1.9963 0.9779
-4.2684 2.9854 -1.9961 0.9779
-4.5172 2.5926 -1.9959 0.9779
-4.7302 2.1792 -1.9958 0.9779
-5.1380 0.8491 -1.9957 0.9779
-5.1934 0.3875 -1.9957 0.9779
-5.0027 -1.4537 -1.9964 0.9779
-4.1813 -3.1134 -1.9978 0.9779
-3.5631 -3.8085 -1.9986 0.9779
-3.2100 -4.1121 -1.9991 0.9779
-2.8311 -4.3830 -1.9996 0.9779
-1.5709 -4.9801 -2.0012 0.9779
-1.1208 -5.1017 -2.0017 0.9779
-0.6614 -5.1827 -2.0022 0.9779
0.2701 -5.2205 -2.0033 0.9779
0.7348 -5.1769 -2.0038 0.9779
1.6438 -4.9663 -2.0047 0.9778
2.0806 -4.8010 -2.0052 0.9778
2.5011 -4.5972 -2.0056 0.9778
2.9017 -4.3567 -2.0060 0.9778
3.2793 -4.0812 -2.0063 0.9778
4.5017 -2.6781 -2.0073 0.9778
4.9065 -1.8358 -2.0076 0.9778
5.0508 -1.3909 -2.0076 0.9778
5.2384 -0.0041 -2.0075 0.9778
5.2176 0.4632 -2.0073 0.9778
5.1550 0.9266 -2.0071 0.9778
4.9071 1.8273 -2.0066 0.9778
4.7238 2.2574 -2.0063 0.9778
2.9053 4.3473 -2.0038 0.9779
2.5053 4.5880 -2.0032 0.9779
1.6494 4.9575 -2.0022 0.9779
1.2003 5.0835 -2.0017 0.9779
0.2778 5.2131 -2.0006 0.9779
-0.6525 5.1769 -1.9996 0.9779
-1.1114 5.0968 -1.9991 0.9779
-1.5612 4.9762 -1.9986 0.9779
-1.9984 4.8160 -1.9982 0.9779
-2.4195 4.6176 -1.9978 0.9779
-2.8211 4.3826 -1.9974 0.9779
-3.2002 4.1128 -1.9970 0.9779
-4.4341 2.7325 -1.9960 0.9779
-4.8485 1.9010 -1.9957 0.9779
-4.9986 1.4609 -1.9957 0.9779
-5.1090 1.0092 -1.9957 0.9779
-5.1787 0.5495 -1.9957 0.9779
-5.1404 -0.8413 -1.9961 0.9779
-4.7362 -2.1730 -1.9969 0.9779
-3.9941 -3.3513 -1.9980 0.9779
-2.1577 -4.7533 -2.0004 0.9779
-1.7256 -4.9281 -2.0010 0.9779
0.1069 -5.2259 -2.0031 0.9779
0.5727 -5.1969 -2.0036 0.9779
1.0342 -5.1264 -2.0041 0.9778
1.9295 -4.8633 -2.0050 0.9778
2.3561 -4.6728 -2.0054 0.9778
3.1500 -4.1814 -2.0062 0.9778
3.5110 -3.8844 -2.0065 0.9778
4.8467 -1.9882 -2.0075 0.9778
5.1230 -1.0954 -2.0076 0.9778
5.2359 -0.1677 -2.0075 0.9778
4.3398 2.9257 -2.0057 0.9778
4.0607 3.3004 -2.0053 0.9778
3.4082 3.9677 -2.0044 0.9778
3.0400 4.2548 -2.0039 0.9778
2.2345 4.7248 -2.0029 0.9779
1.8037 4.9040 -2.0024 0.9779
1.3587 5.0440 -2.0019 0.9779
0.9031 5.1437 -2.0013 0.9779
0.4406 5.2024 -2.0008 0.9779
-0.0251 5.2196 -2.0003 0.9779
-0.4905 5.1952 -1.9998 0.9779
-1.4051 5.0229 -1.9988 0.9779
-1.8471 4.8765 -1.9983 0.9779
-2.6830 4.4689 -1.9975 0.9779
-3.4331 3.9197 -1.9968 0.9779
-4.3467 2.8698 -1.9961 0.9779
-4.7868 2.0516 -1.9958 0.9779
-4.9505 1.6164 -1.9957 0.9779
-5.0749 1.1684 -1.9957 0.9779
-5.1590 0.7111 -1.9957 0.9779
-5.2020 0.2481 -1.9958 0.9779
-5.2037 -0.2169 -1.9959 0.9779
-5.0833 -1.1383 -1.9963 0.9779
-4.9621 -1.5873 -1.9965 0.9779
-4.6026 -2.4445 -1.9971 0.9779
-4.0966 -3.2246 -1.9979 0.9779
-2.7128 -4.4577 -1.9997 0.9779
-2.3050 -4.6831 -2.0003 0.9779
-1.8785 -4.8713 -2.0008 0.9779
-1.4370 -5.0208 -2.0013 0.9779
-0.5223 -5.1990 -2.0024 0.9779
-0.0565 -5.2262 -2.0029 0.9779
0.4100 -5.2118 -2.0034 0.9779
1.7765 -4.9208 -2.0049 0.9778
2.2088 -4.7438 -2.0053 0.9778
3.0177 -4.2775 -2.0061 0.9778
3.3877 -3.9920 -2.0064 0.9778
3.7309 -3.6745 -2.0067 0.9778
4.7821 -2.1386 -2.0075 0.9778
4.9540 -1.7036 -2.0076 0.9778
5.0863 -1.2550 -2.0076 0.9778
5.1779 -0.7963 -2.0076 0.9778
5.2281 -0.3313 -2.0075 0.9778
5.2366 0.1364 -2.0074 0.9778
5.2031 0.6029 -2.0073 0.9778
5.1281 1.0644 -2.0071 0.9778
4.8561 1.9582 -2.0065 0.9778
4.6613 2.3831 -2.0062 0.9778
4.4294 2.7889 -2.0059 0.9778
4.1622 3.1722 -2.0055 0.9778
3.8618 3.5300 -2.0050 0.9778
3.5308 3.8596 -2.0046 0.9778
3.1717 4.1581 -2.0041 0.9778
1.5158 4.9996 -2.0020 0.9779
1.0635 5.1135 -2.0015 0.9779
-0.3279 5.2085 -1.9999 0.9779
-1.2475 5.0648 -1.9989 0.9779
-2.5422 4.5508 -1.9976 0.9779
-4.2551 3.0043 -1.9961 0.9779
-4.7205 2.2002 -1.9958 0.9779
-5.1342 0.8719 -1.9957 0.9779
-5.2078 -0.0542 -1.9958 0.9779
-5.1826 -0.5186 -1.9960 0.9779
-5.1162 -0.9788 -1.9962 0.9779
-4.8621 -1.8728 -1.9967 0.9779
-4.6764 -2.2993 -1.9970 0.9779
-4.4535 -2.7078 -1.9974 0.9779
-3.9031 -3.4574 -1.9982 0.9779
-2.0297 -4.8098 -2.0006 0.9779
-1.5930 -4.9730 -2.0011 0.9779
-0.6844 -5.1797 -2.0022 0.9779
-0.2197 -5.2214 -2.0027 0.9779
1.1714 -5.0971 -2.0042 0.9778
2.0593 -4.8101 -2.0052 0.9778
3.2612 -4.0957 -2.0063 0.9778
4.4898 -2.6980 -2.0073 0.9778
5.0446 -1.4133 -2.0076 0.9778
5.1505 -0.9577 -2.0076 0.9778
5.2153 -0.4945 -2.0076 0.9778
5.2384 -0.0273 -2.0075 0.9778
5.2196 0.4400 -2.0073 0.9778
5.1591 0.9037 -2.0071 0.9778
5.0573 1.3601 -2.0069 0.9778
4.9152 1.8055 -2.0066 0.9778
4.7338 2.2364 -2.0063 0.9778
4.5147 2.6493 -2.0060 0.9778
3.9705 3.4079 -2.0052 0.9778
3.6499 3.7476 -2.0047 0.9778
2.9246 4.3345 -2.0038 0.9779
0.7648 5.1657 -2.0012 0.9779
-3.5368 3.8261 -1.9967 0.9779
-3.8635 3.4949 -1.9964 0.9779
-4.4220 2.7522 -1.9960 0.9779
-4.8400 1.9225 -1.9957 0.9779
-5.1762 0.5725 -1.9957 0.9779
-5.2069 0.1085 -1.9958 0.9779
-5.1961 -0.3564 -1.9959 0.9779
-5.0511 -1.2742 -1.9963 0.9779
-4.9180 -1.7198 -1.9966 0.9779
-4.7457 -2.1520 -1.9969 0.9779
-4.2894 -2.9620 -1.9976 0.9779
-3.3543 -3.9946 -1.9989 0.9779
-2.9854 -4.2788 -1.9994 0.9779
-2.5925 -4.5292 -1.9999 0.9779
-2.1787 -4.7436 -2.0004 0.9779
-0.8458 -5.1553 -2.0020 0.9779
0.0837 -5.2263 -2.0031 0.9779
1.4654 -5.0213 -2.0045 0.9778
1.9079 -4.8717 -2.0050 0.9778
2.3353 -4.6832 -2.0054 0.9778
2.7443 -4.4571 -2.0058 0.9778
3.1314 -4.1953 -2.0062 0.9778
3.8282 -3.5733 -2.0068 0.9778
4.1322 -3.2180 -2.0071 0.9778
4.4032 -2.8368 -2.0073 0.9778
4.6390 -2.4330 -2.0074 0.9778
5.1974 -0.6572 -2.0076 0.9778
5.2351 -0.1910 -2.0075 0.9778
5.2309 0.2767 -2.0074 0.9778
5.0975 1.2015 -2.0070 0.9778
4.9694 1.6512 -2.0067 0.9778
4.5955 2.5071 -2.0061 0.9778
4.3528 2.9064 -2.0057 0.9778
4.0754 3.2824 -2.0053 0.9778
3.7655 3.6321 -2.0049 0.9778
3.0588 4.2413 -2.0040 0.9778
2.2554 4.7149 -2.0029 0.9779
1.8254 4.8960 -2.0024 0.9779
0.9260 5.1397 -2.0013 0.9779
0.4637 5.2005 -2.0008 0.9779
-0.9289 5.1337 -1.9993 0.9779
-1.3828 5.0292 -1.9988 0.9779
-2.2534 4.7014 -1.9979 0.9779
-3.4158 3.9349 -1.9968 0.9779
-3.7526 3.6140 -1.9965 0.9779
-4.3340 2.8891 -1.9961 0.9779
-4.5740 2.4908 -1.9959 0.9779
-5.2046 -0.1938 -1.9959 0.9779
-5.1670 -0.6573 -1.9960 0.9779
-4.9691 -1.5653 -1.9965 0.9779
-4.6133 -2.4240 -1.9971 0.9779
-4.3795 -2.8264 -1.9975 0.9779
-2.7325 -4.4456 -1.9997 0.9779
-2.3257 -4.6728 -2.0002 0.9779
-1.9001 -4.8629 -2.0008 0.9779
-1.4592 -5.0143 -2.0013 0.9779
-1.0064 -5.1258 -2.0018 0.9779
-0.5453 -5.1966 -2.0024 0.9779
0.3869 -5.2135 -2.0034 0.9779
0.8506 -5.1595 -2.0039 0.9778
2.1877 -4.7535 -2.0053 0.9778
2.9986 -4.2908 -2.0061 0.9778
4.3122 -2.9729 -2.0072 0.9778
4.5606 -2.5767 -2.0074 0.9778
4.9464 -1.7256 -2.0076 0.9778
5.0807 -1.2775 -2.0076 0.9778
5.2371 0.1132 -2.0074 0.9778
5.0188 1.4952 -2.0068 0.9778
4.8648 1.9366 -2.0066 0.9778
3.1901 4.1441 -2.0041 0.9778
2.4019 4.6426 -2.0031 0.9779
1.9777 4.8371 -2.0026 0.9779
1.5379 4.9929 -2.0021 0.9779
1.0862 5.1088 -2.0015 0.9779
0.1611 5.2177 -2.0005 0.9779
-0.3048 5.2099 -2.0000 0.9779
-0.7681 5.1607 -1.9995 0.9779
-1.6721 4.9398 -1.9985 0.9779
-2.5221 4.5621 -1.9977 0.9779
-3.2913 4.0400 -1.9969 0.9779
-5.0300 1.3487 -1.9957 0.9779
-5.1303 0.8947 -1.9957 0.9779
-5.1898 0.4335 -1.9957 0.9779
-5.0153 -1.4092 -1.9964 0.9779
-4.4654 -2.6880 -1.9973 0.9779
-3.9183 -3.4400 -1.9981 0.9779
-3.2463 -4.0833 -1.9991 0.9779
-2.0509 -4.8007 -2.0006 0.9779
-1.6150 -4.9658 -2.0011 0.9779
-1.1659 -5.0914 -2.0016 0.9779
-0.7073 -5.1765 -2.0022 0.9779
-0.2429 -5.2203 -2.0027 0.9779
1.1487 -5.1022 -2.0042 0.9778
1.5996 -4.9806 -2.0047 0.9778
2.8629 -4.3821 -2.0059 0.9778
3.5972 -3.8050 -2.0066 0.9778
4.2171 -3.1061 -2.0071 0.9778
4.4778 -2.7179 -2.0073 0.9778
4.8900 -1.8792 -2.0076 0.9778
5.0383 -1.4356 -2.0076 0.9778
5.2382 -0.0505 -2.0075 0.9778
5.2215 0.4169 -2.0073 0.9778
5.1630 0.8808 -2.0072 0.9778
5.0633 1.3377 -2.0069 0.9778
4.5264 2.6292 -2.0060 0.9778
3.6665 3.7315 -2.0048 0.9778
2.5460 4.5657 -2.0033 0.9779
2.1281 4.7733 -2.0028 0.9779
1.6934 4.9428 -2.0023 0.9779
1.2454 5.0728 -2.0017 0.9779
0.3241 5.2106 -2.0007 0.9779
-1.0662 5.1066 -1.9991 0.9779
-1.5170 4.9900 -1.9987 0.9779
-2.7822 4.4075 -1.9974 0.9779
-3.1637 4.1411 -1.9970 0.9779
-3.8480 3.5120 -1.9964 0.9779
-4.6391 2.3672 -1.9959 0.9779
-4.9854 1.5052 -1.9957 0.9779
-5.1976 -0.3333 -1.9959 0.9779
-4.9255 -1.6980 -1.9966 0.9779
-4.5469 -2.5470 -1.9972 0.9779
-4.0236 -3.3156 -1.9980 0.9779
-3.3720 -3.9796 -1.9989 0.9779
-2.6125 -4.5176 -1.9999 0.9779
-1.3243 -5.0520 -2.0014 0.9779
-0.8687 -5.1514 -2.0020 0.9779
-0.4058 -5.2097 -2.0025 0.9779
0.0605 -5.2265 -2.0030 0.9779
0.5266 -5.2016 -2.0035 0.9779
0.9886 -5.1352 -2.0040 0.9778
1.4431 -5.0278 -2.0045 0.9778
1.8862 -4.8801 -2.0050 0.9778
2.7244 -4.4692 -2.0058 0.9778
3.4764 -3.9154 -2.0065 0.9778
3.8123 -3.5902 -2.0068 0.9778
4.1178 -3.2362 -2.0070 0.9778
4.6282 -2.4536 -2.0074 0.9778
4.8288 -2.0311 -2.0075 0.9778
4.9909 -1.5924 -2.0076 0.9778
5.1131 -1.1408 -2.0076 0.9778
5.2342 -0.2142 -2.0075 0.9778
5.2321 0.2535 -2.0074 0.9778
5.1882 0.7191 -2.0072 0.9778
5.1029 1.1789 -2.0070 0.9778
4.9767 1.6292 -2.0068 0.9778
4.3657 2.8871 -2.0058 0.9778
3.7816 3.6154 -2.0049 0.9778
3.4433 3.9374 -2.0045 0.9778
3.0777 4.2278 -2.0040 0.9778
2.6876 4.4843 -2.0035 0.9779
1.8471 4.8880 -2.0024 0.9779
1.4034 5.0319 -2.0019 0.9779
-0.4444 5.1995 -1.9998 0.9779
-0.9062 5.1379 -1.9993 0.9779
-1.3605 5.0353 -1.9988 0.9779
-3.3983 3.9500 -1.9968 0.9779
-4.3211 2.9083 -1.9961 0.9779
-5.0644 1.2133 -1.9957 0.9779
-5.1698 -0.6344 -1.9960 0.9779
-4.9760 -1.5432 -1.9965 0.9779
-4.8192 -1.9812 -1.9968 0.9779
-4.6240 -2.4035 -1.9971 0.9779
-4.3920 -2.8069 -1.9975 0.9779
-3.8250 -3.5440 -1.9983 0.9779
-3.4944 -3.8720 -1.9987 0.9779
-2.7521 -4.4334 -1.9997 0.9779
-2.3463 -4.6624 -2.0002 0.9779
-1.9216 -4.8543 -2.0007 0.9779
-1.4814 -5.0077 -2.0013 0.9779
-1.0291 -5.1213 -2.0018 0.9779
-0.1028 -5.2254 -2.0029 0.9779
0.3637 -5.2151 -2.0034 0.9779
0.8276 -5.1632 -2.0039 0.9778
1.2852 -5.0700 -2.0044 0.9778
1.7327 -4.9363 -2.0048 0.9778
3.6981 -3.7074 -2.0067 0.9778
4.7629 -2.1809 -2.0075 0.9778
5.1707 -0.8422 -2.0076 0.9778
4.8733 1.9150 -2.0066 0.9778
4.4540 2.7495 -2.0059 0.9778
4.1902 3.1352 -2.0055 0.9778
3.8931 3.4957 -2.0051 0.9778
3.5649 3.8282 -2.0046 0.9778
3.2085 4.1299 -2.0041 0.9778
2.8267 4.3985 -2.0037 0.9779
1.9991 4.8283 -2.0026 0.9779
1.5601 4.9860 -2.0021 0.9779
-0.2818 5.2113 -2.0000 0.9779
-0.7453 5.1641 -1.9995 0.9779
-2.8992 4.3311 -1.9973 0.9779
-3.2734 4.0545 -1.9969 0.9779
-3.9406 3.4074 -1.9964 0.9779
-4.2283 3.0420 -1.9961 0.9779
-4.4824 2.6525 -1.9960 0.9779
-5.0240 1.3710 -1.9957 0.9779
-5.1263 0.9174 -1.9957 0.9779
-5.1878 0.4565 -1.9957 0.9779
2.4414 4.2424 -2.0033 0.9791
2.0527 4.4421 -2.0028 0.9791
0.8029 4.8235 -2.0013 0.9791
0.3694 4.8747 -2.0008 0.9791
-0.0669 4.8870 -2.0003 0.9791
-0.5024 4.8604 -1.9998 0.9791
-0.9337 4.7951 -1.9994 0.9791
-1.3574 4.6916 -1.9989 0.9791
-2.1685 4.3740 -1.9981 0.9791
-2.5495 4.1624 -1.9977 0.9791
-2.9101 3.9177 -1.9974 0.9791
-3.2474 3.6420 -1.9971 0.9791
-3.5589 3.3374 -1.9968 0.9791
-3.8419 3.0063 -1.9966 0.9791
-4.0944 2.6514 -1.9964 0.9791
-4.4997 1.8815 -1.9961 0.9791
-4.6495 1.4726 -1.9961 0.9791
-1.9413 -0.0982 -0.7955 0.9916
-4.6337 -1.5277 -1.9969 0.9791
-4.2898 -2.3274 -1.9974 0.9791
-4.0658 -2.7012 -1.9978 0.9791
-3.8094 -3.0536 -1.9982 0.9791
-2.8668 -3.9557 -1.9994 0.9791
-2.5032 -4.1966 -1.9999 0.9791
-2.1194 -4.4042 -2.0004 0.9791
-1.7185 -4.5768 -2.0009 0.9791
-1.3038 -4.7131 -2.0014 0.9791
-0.8784 -4.8118 -2.0019 0.9791
0.8606 -4.8198 -2.0038 0.9791
1.2873 -4.7249 -2.0043 0.9791
2.4938 -4.2180 -2.0055 0.9790
2.8606 -3.9795 -2.0058 0.9790
3.2046 -3.7090 -2.0061 0.9790
3.5232 -3.4089 -2.0064 0.9790
4.4944 -1.9623 -2.0071 0.9790
4.8538 -0.7024 -2.0072 0.9790
4.8969 -0.2667 -2.0072 0.9790
4.8936 0.1709 -2.0040 0.9791
4.5297 1.8734 -2.0062 0.9790
4.3439 2.2696 -2.0059 0.9790
4.1234 2.6476 -2.0055 0.9790
3.8701 3.0043 -2.0052 0.9790
3.5860 3.3368 -2.0048 0.9791
2.5729 4.1643 -2.0034 0.9791
1.7912 4.5530 -2.0025 0.9791
1.3776 4.6935 -2.0020 0.9791
0.5215 4.8612 -2.0010 0.9791
0.0858 4.8871 -2.0005 0.9791
-0.7835 4.8223 -1.9995 0.9791
-2.0309 4.4399 -1.9982 0.9791
-2.4184 4.2403 -1.9978 0.9791
-3.4530 3.4471 -1.9969 0.9791
-4.0096 2.7781 -1.9964 0.9791
-1.9519 0.1369 -0.8008 0.9916
-1.9567 -0.2133 -0.8056 0.9915
-4.5376 -1.7942 -1.9970 0.9791
-3.9026 -2.9329 -1.9980 0.9791
-3.3208 -3.5811 -1.9988 0.9791
-2.2558 -4.3355 -2.0002 0.9791
-0.1624 -4.8906 -2.0027 0.9791
2.7347 -4.0667 -2.0057 0.9790
3.4148 -3.5171 -2.0063 0.9790
3.7154 -3.1990 -2.0066 0.9790
3.9863 -2.8551 -2.0068 0.9790
4.2255 -2.4884 -2.0070 0.9790
4.7341 -1.2811 -2.0072 0.9790
4.8295 -0.8537 -2.0072 0.9790
4.8863 -0.4196 -2.0072 0.9790
4.8868 0.0179 -2.0000 0.9791
4.8220 0.8889 -2.0068 0.9790
4.5863 1.7311 -2.0063 0.9790
4.4129 2.1329 -2.0060 0.9790
3.6888 3.2234 -2.0049 0.9791
3.3859 3.5388 -2.0045 0.9791
3.0561 3.8259 -2.0041 0.9791
0.6732 4.8429 -2.0011 0.9791
0.2385 4.8825 -2.0006 0.9791
-1.4826 4.6533 -1.9988 0.9791
-3.0140 3.8381 -1.9973 0.9791
-3.3438 3.5535 -1.9970 0.9791
-3.6469 3.2406 -1.9967 0.9791
-3.9210 2.9021 -1.9965 0.9791
-4.1639 2.5406 -1.9963 0.9791
-4.5485 1.7601 -1.9961 0.9791
-4.7887 0.9239 -1.9961 0.9791
-4.7196 -1.2352 -1.9967 0.9791
-4.5912 -1.6514 -1.9969 0.9791
-3.9921 -2.8094 -1.9979 0.9791
-3.7263 -3.1548 -1.9983 0.9791
-3.4308 -3.4754 -1.9987 0.9791
-3.1078 -3.7683 -1.9991 0.9791
-2.3899 -4.2625 -2.0001 0.9791
-1.5953 -4.6216 -2.0010 0.9791
-1.1770 -4.7467 -2.0015 0.9791
-0.7491 -4.8339 -2.0020 0.9791
-0.3151 -4.8827 -2.0025 0.9791
0.1217 -4.8925 -2.0030 0.9791
0.5578 -4.8633 -2.0035 0.9791
0.9896 -4.7953 -2.0040 0.9791
1.8266 -4.5451 -2.0048 0.9791
2.2252 -4.3650 -2.0052 0.9790
2.6062 -4.1499 -2.0056 0.9790
2.9664 -3.9015 -2.0059 0.9790
3.8950 -2.9782 -2.0067 0.9790
4.1455 -2.6191 -2.0069 0.9790
4.5455 -1.8411 -2.0072 0.9790
4.6917 -1.4284 -2.0072 0.9790
4.8005 -1.0042 -2.0072 0.9790
4.8708 -0.5720 -2.0072 0.9790
4.8868 -0.1349 -2.0008 0.9791
4.8945 0.3025 -2.0070 0.9790
4.8476 0.7378 -2.0068 0.9790
4.7620 1.1671 -2.0066 0.9790
4.6383 1.5870 -2.0064 0.9790
4.0508 2.7570 -2.0054 0.9790
3.4950 3.4315 -2.0046 0.9791
2.4602 4.2315 -2.0033 0.9791
2.0725 4.4330 -2.0028 0.9791
0.8243 4.8199 -2.0013 0.9791
0.3910 4.8730 -2.0008 0.9791
-0.0452 4.8873 -2.0003 0.9791
-2.5310 4.1737 -1.9977 0.9791
-2.8927 3.9306 -1.9974 0.9791
-3.5441 3.3531 -1.9968 0.9791
-3.8286 3.0233 -1.9966 0.9791
-4.3041 2.2946 -1.9962 0.9791
-4.6429 1.4932 -1.9961 0.9791
-4.7575 1.0731 -1.9961 0.9791
-1.9498 0.2599 -0.8051 0.9915
-1.9364 0.0837 -0.7932 0.9917
-1.9383 -0.0894 -0.7942 0.9916
-1.9485 -0.2655 -0.8048 0.9915
-4.4881 -1.9153 -1.9971 0.9791
-4.3000 -2.3083 -1.9974 0.9791
-4.0777 -2.6831 -1.9978 0.9791
-3.5375 -3.3662 -1.9985 0.9791
-2.8843 -3.9429 -1.9994 0.9791
-2.5217 -4.1854 -1.9999 0.9791
-2.1389 -4.3947 -2.0004 0.9791
-1.7388 -4.5691 -2.0009 0.9791
-0.4674 -4.8701 -2.0024 0.9791
0.8392 -4.8235 -2.0038 0.9791
1.2664 -4.7305 -2.0043 0.9791
2.0876 -4.4321 -2.0051 0.9790
2.8429 -3.9921 -2.0058 0.9790
3.5080 -3.4245 -2.0064 0.9790
3.7999 -3.0983 -2.0067 0.9790
4.2907 -2.3742 -2.0070 0.9790
4.4857 -1.9822 -2.0071 0.9790
4.7667 -1.1537 -2.0072 0.9790
4.8506 -0.7239 -2.0072 0.9790
4.8943 0.1492 -2.0040 0.9791
4.8684 0.5860 -2.0069 0.9790
4.1352 2.6293 -2.0056 0.9790
3.8835 2.9871 -2.0052 0.9790
3.2896 3.6281 -2.0044 0.9791
2.9522 3.9062 -2.0039 0.9791
1.3985 4.6874 -2.0020 0.9791
0.5431 4.8589 -2.0010 0.9791
0.1075 4.8867 -2.0005 0.9791
-0.7621 4.8258 -1.9995 0.9791
-1.1892 4.7375 -1.9991 0.9791
-1.6067 4.6115 -1.9987 0.9791
-2.0112 4.4490 -1.9982 0.9791
-2.3996 4.2510 -1.9979 0.9791
-2.7687 4.0193 -1.9975 0.9791
-3.1156 3.7558 -1.9972 0.9791
-3.9973 2.7959 -1.9965 0.9791
-4.7217 1.2212 -1.9961 0.9791
-2.0803 0.3438 -0.8629 0.9909
-4.7872 -0.9379 -1.9965 0.9791
-4.6850 -1.3613 -1.9968 0.9791
-4.3698 -2.1727 -1.9973 0.9791
-4.1593 -2.5542 -1.9976 0.9791
-3.0059 -3.8506 -1.9993 0.9791
-2.6510 -4.1043 -1.9997 0.9791
-2.2749 -4.3254 -2.0002 0.9791
-1.8805 -4.5122 -2.0007 0.9791
-1.0494 -4.7769 -2.0017 0.9791
-0.1840 -4.8897 -2.0027 0.9791
0.2529 -4.8879 -2.0032 0.9791
0.6880 -4.8470 -2.0036 0.9791
1.5390 -4.6497 -2.0045 0.9791
1.9480 -4.4948 -2.0049 0.9790
3.0701 -3.8208 -2.0060 0.9790
3.7011 -3.2154 -2.0066 0.9790
4.2144 -2.5071 -2.0070 0.9790
4.5933 -1.7186 -2.0072 0.9790
4.7283 -1.3021 -2.0072 0.9790
4.8256 -0.8751 -2.0072 0.9790
4.8844 -0.4412 -2.0072 0.9790
4.8259 0.8675 -2.0068 0.9790
4.7288 1.2943 -2.0066 0.9790
4.4224 2.1133 -2.0060 0.9790
3.7031 3.2070 -2.0049 0.9790
2.3457 4.2957 -2.0031 0.9791
1.5444 4.6418 -2.0022 0.9791
-0.1762 4.8840 -2.0002 0.9791
-0.6110 4.8476 -1.9997 0.9791
-1.8713 4.5099 -1.9984 0.9791
-2.6419 4.1041 -1.9976 0.9791
-3.3280 3.5683 -1.9970 0.9791
-3.6326 3.2568 -1.9967 0.9791
-4.3640 2.1783 -1.9962 0.9791
-4.5407 1.7803 -1.9961 0.9791
-4.6812 1.3681 -1.9961 0.9791
-4.7846 0.9451 -1.9961 0.9791
-1.9571 0.2077 -0.8055 0.9915
-1.9531 -0.1426 -0.8015 0.9916
-4.7250 -1.2142 -1.9967 0.9791
-4.5985 -1.6311 -1.9969 0.9791
-4.2368 -2.4229 -1.9975 0.9791
-3.7403 -3.1383 -1.9983 0.9791
-3.4461 -3.4601 -1.9987 0.9791
-2.0204 -4.4508 -2.0005 0.9791
-0.7706 -4.8305 -2.0020 0.9791
0.1001 -4.8930 -2.0030 0.9791
1.3928 -4.6952 -2.0044 0.9791
1.8064 -4.5532 -2.0048 0.9791
2.2058 -4.3748 -2.0052 0.9790
3.8818 -2.9954 -2.0067 0.9790
4.1339 -2.6375 -2.0069 0.9790
4.6853 -1.4492 -2.0072 0.9790
4.8864 -0.1566 -2.0009 0.9791
4.8958 0.2808 -2.0070 0.9790
4.7671 1.1460 -2.0066 0.9790
4.0630 2.7391 -2.0055 0.9790
3.8017 3.0900 -2.0051 0.9790
3.5103 3.4160 -2.0047 0.9791
2.0921 4.4239 -2.0028 0.9791
1.6888 4.5917 -2.0023 0.9791
1.2722 4.7228 -2.0018 0.9791
0.8456 4.8163 -2.0013 0.9791
0.4126 4.8713 -2.0008 0.9791
-0.4593 4.8647 -1.9999 0.9791
-0.8911 4.8033 -1.9994 0.9791
-1.7296 4.5665 -1.9985 0.9791
-2.5125 4.1849 -1.9978 0.9791
-2.8753 3.9435 -1.9974 0.9791
-3.5292 3.3688 -1.9968 0.9791
-3.8151 3.0403 -1.9966 0.9791
-4.2939 2.3136 -1.9963 0.9791
-4.4829 1.9213 -1.9961 0.9791
-1.9394 0.0925 -0.7946 0.9916
-1.9353 -0.0807 -0.7927 0.9917
-4.6470 -1.4865 -1.9968 0.9791
-4.4965 -1.8953 -1.9971 0.9791
-3.5523 -3.3505 -1.9985 0.9791
-2.9017 -3.9300 -1.9994 0.9791
-2.5402 -4.1742 -1.9999 0.9791
-2.1583 -4.3852 -2.0003 0.9791
-1.7590 -4.5613 -2.0008 0.9791
-1.3455 -4.7012 -2.0013 0.9791
0.3839 -4.8797 -2.0033 0.9791
1.2454 -4.7360 -2.0042 0.9791
2.0679 -4.4412 -2.0051 0.9790
2.4563 -4.2399 -2.0055 0.9790
2.8251 -4.0046 -2.0058 0.9790
3.4928 -3.4400 -2.0064 0.9790
4.2802 -2.3933 -2.0070 0.9790
4.7616 -1.1749 -2.0072 0.9790
4.8473 -0.7454 -2.0072 0.9790
4.8944 -0.3101 -2.0072 0.9790
4.8837 0.1272 -1.9995 0.9791
4.8008 0.9965 -2.0067 0.9790
4.5462 1.8332 -2.0062 0.9790
4.3639 2.2310 -2.0059 0.9790
4.1468 2.6109 -2.0056 0.9790
3.8967 2.9699 -2.0052 0.9790
3.6156 3.3049 -2.0048 0.9791
2.9695 3.8931 -2.0039 0.9791
2.6098 4.1414 -2.0035 0.9791
2.2295 4.3567 -2.0030 0.9791
1.4192 4.6812 -2.0020 0.9791
0.9958 4.7879 -2.0015 0.9791
0.5646 4.8565 -2.0010 0.9791
-0.3071 4.8771 -2.0000 0.9791
-0.7407 4.8292 -1.9996 0.9791
-3.7184 3.1581 -1.9967 0.9791
-3.9849 2.8136 -1.9965 0.9791
-4.2196 2.4467 -1.9963 0.9791
-4.4207 2.0605 -1.9962 0.9791
-4.7162 1.2422 -1.9961 0.9791
-1.9554 0.1546 -0.8028 0.9916
-1.9085 -0.0199 -0.7812 0.9918
-4.6909 -1.3405 -1.9967 0.9791
-4.5533 -1.7538 -1.9970 0.9791
-4.3793 -2.1533 -1.9973 0.9791
-4.1705 -2.5358 -1.9976 0.9791
-3.6550 -3.2376 -1.9984 0.9791
-3.0229 -3.8372 -1.9992 0.9791
-1.4916 -4.6565 -2.0012 0.9791
0.6665 -4.8499 -2.0036 0.9791
1.5183 -4.6564 -2.0045 0.9791
2.3224 -4.3143 -2.0053 0.9790
3.0531 -3.8343 -2.0060 0.9790
4.4120 -2.1409 -2.0071 0.9790
4.8217 -0.8965 -2.0072 0.9790
4.8824 -0.4629 -2.0072 0.9790
4.8873 -0.0255 -2.0003 0.9791
4.8864 0.4119 -2.0070 0.9790
4.8298 0.8460 -2.0068 0.9790
4.6015 1.6903 -2.0063 0.9790
4.2266 2.4803 -2.0057 0.9790
3.4172 3.5087 -2.0045 0.9791
2.7382 4.0582 -2.0036 0.9791
2.3647 4.2853 -2.0032 0.9791
1.1450 4.7549 -2.0017 0.9791
0.7162 4.8369 -2.0012 0.9791
0.2818 4.8803 -2.0007 0.9791
-0.1546 4.8848 -2.0002 0.9791
-0.5895 4.8504 -1.9997 0.9791
-1.0195 4.7773 -1.9993 0.9791
-1.8513 4.5182 -1.9984 0.9791
-2.2465 4.3342 -1.9980 0.9791
-2.6237 4.1158 -1.9977 0.9791
-4.1412 2.5774 -1.9964 0.9791
-4.3543 2.1976 -1.9962 0.9791
-4.6751 1.3889 -1.9961 0.9791
-1.9565 0.2164 -0.8056 0.9915
-1.9184 0.0400 -0.7853 0.9917
-1.9511 -0.1338 -0.8004 0.9916
-4.6056 -1.6106 -1.9969 0.9791
-4.4442 -2.0153 -1.9972 0.9791
-3.7541 -3.1216 -1.9982 0.9791
-2.7955 -4.0067 -1.9995 0.9791
0.0783 -4.8933 -2.0030 0.9791
0.5146 -4.8680 -2.0034 0.9791
1.3720 -4.7012 -2.0044 0.9791
1.7862 -4.5611 -2.0048 0.9791
2.1863 -4.3845 -2.0052 0.9790
2.5692 -4.1728 -2.0056 0.9790
2.9316 -3.9276 -2.0059 0.9790
3.2708 -3.6510 -2.0062 0.9790
3.5839 -3.3452 -2.0065 0.9790
4.5290 -1.8813 -2.0072 0.9790
4.6789 -1.4699 -2.0072 0.9790
4.7914 -1.0468 -2.0072 0.9790
4.8656 -0.6152 -2.0072 0.9790
4.8540 0.6948 -2.0069 0.9790
4.6523 1.5458 -2.0064 0.9790
4.0751 2.7210 -2.0055 0.9790
3.8155 3.0731 -2.0051 0.9790
2.4977 4.2096 -2.0033 0.9791
2.1117 4.4146 -2.0029 0.9791
0.8670 4.8126 -2.0014 0.9791
-2.4940 4.1961 -1.9978 0.9791
-2.8578 3.9562 -1.9974 0.9791
-3.1988 3.6850 -1.9971 0.9791
-3.5142 3.3845 -1.9968 0.9791
-3.8016 3.0572 -1.9966 0.9791
-4.4743 1.9412 -1.9961 0.9791
-4.6295 1.5343 -1.9961 0.9791
-4.7651 -1.0448 -1.9966 0.9791
-4.6535 -1.4659 -1.9968 0.9791
-4.3202 -2.2700 -1.9974 0.9791
-4.1012 -2.6468 -1.9977 0.9791
-3.2561 -3.6403 -1.9989 0.9791
-2.5587 -4.1628 -1.9998 0.9791
-2.1777 -4.3755 -2.0003 0.9791
-1.7792 -4.5534 -2.0008 0.9791
-1.3663 -4.6951 -2.0013 0.9791
-0.5106 -4.8656 -2.0023 0.9791
0.7964 -4.8307 -2.0038 0.9791
1.6427 -4.6143 -2.0046 0.9791
2.0482 -4.4503 -2.0050 0.9790
2.8073 -4.0171 -2.0058 0.9790
3.4775 -3.4554 -2.0064 0.9790
3.7722 -3.1319 -2.0066 0.9790
4.2695 -2.4122 -2.0070 0.9790
4.4679 -2.0219 -2.0071 0.9790
4.7563 -1.1960 -2.0072 0.9790
4.8440 -0.7669 -2.0072 0.9790
4.8930 -0.3318 -2.0072 0.9790
4.8052 0.9752 -2.0067 0.9790
3.9099 2.9526 -2.0052 0.9790
3.6302 3.2889 -2.0048 0.9791
3.3217 3.5988 -2.0044 0.9791
2.6282 4.1299 -2.0035 0.9791
2.2488 4.3468 -2.0030 0.9791
1.8517 4.5290 -2.0025 0.9791
1.4400 4.6749 -2.0020 0.9791
0.1509 4.8857 -2.0005 0.9791
-0.2854 4.8785 -2.0001 0.9791
-1.1472 4.7480 -1.9991 0.9791
-1.5657 4.6257 -1.9987 0.9791
-2.7329 4.0438 -1.9975 0.9791
-3.7044 3.1746 -1.9967 0.9791
-4.5793 1.6782 -1.9961 0.9791
-4.7107 1.2630 -1.9961 0.9791
-2.1461 0.3743 -0.8916 0.9906
-1.9040 -0.0114 -0.7793 0.9918
-1.9579 -0.1871 -0.8050 0.9915
-4.1817 -2.5172 -1.9976 0.9791
-3.6693 -3.2213 -1.9984 0.9791
-3.0398 -3.8237 -1.9992 0.9791
-0.6623 -4.8468 -2.0021 0.9791
-0.2274 -4.8878 -2.0026 0.9791
0.2095 -4.8898 -2.0031 0.9791
0.6450 -4.8528 -2.0036 0.9791
1.0755 -4.7770 -2.0040 0.9791
1.9080 -4.5118 -2.0049 0.9791
3.0360 -3.8478 -2.0060 0.9790
3.3676 -3.5622 -2.0063 0.9790
3.6724 -3.2481 -2.0066 0.9790
4.1919 -2.5444 -2.0070 0.9790
4.4025 -2.1605 -2.0071 0.9790
4.5778 -1.7593 -2.0072 0.9790
4.7166 -1.3439 -2.0072 0.9790
4.8177 -0.9179 -2.0072 0.9790
4.8874 -0.0472 -2.0004 0.9791
4.8882 0.3903 -2.0070 0.9790
4.8335 0.8246 -2.0068 0.9790
4.4410 2.0741 -2.0060 0.9790
4.2376 2.4615 -2.0057 0.9790
4.0005 2.8292 -2.0054 0.9790
3.4328 3.4936 -2.0046 0.9791
2.3838 4.2748 -2.0032 0.9791
1.5855 4.6280 -2.0022 0.9791
1.1661 4.7498 -2.0017 0.9791
0.3035 4.8790 -2.0007 0.9791
-0.1329 4.8854 -2.0002 0.9791
-0.5680 4.8530 -1.9998 0.9791
-0.9984 4.7819 -1.9993 0.9791
-1.4206 4.6727 -1.9989 0.9791
-2.6054 4.1275 -1.9977 0.9791
-3.2963 3.5977 -1.9970 0.9791
-3.8821 2.9541 -1.9965 0.9791
-4.3445 2.2169 -1.9962 0.9791
-4.7760 0.9876 -1.9961 0.9791
-1.9490 -0.1250 -0.7993 0.9916
-1.9943 -0.3083 -0.8259 0.9913
-4.2580 -2.3852 -1.9975 0.9791
-4.0290 -2.7559 -1.9978 0.9791
-3.1576 -3.7265 -1.9991 0.9791
-2.4463 -4.2302 -2.0000 0.9791
-1.6566 -4.5998 -2.0010 0.9791
0.0566 -4.8935 -2.0029 0.9791
1.7660 -4.5689 -2.0048 0.9791
2.1669 -4.3941 -2.0052 0.9790
2.5506 -4.1841 -2.0055 0.9790
3.2545 -3.6655 -2.0062 0.9790
3.8550 -3.0297 -2.0067 0.9790
4.5206 -1.9014 -2.0072 0.9790
4.9000 -0.2005 -2.0071 0.9790
4.8908 0.2370 -2.0040 0.9791
4.7772 1.1037 -2.0067 0.9790
4.5039 1.9344 -2.0062 0.9790
4.3127 2.3280 -2.0058 0.9790
4.0872 2.7030 -2.0055 0.9790
3.8291 3.0562 -2.0051 0.9790
3.5405 3.3849 -2.0047 0.9791
3.2238 3.6864 -2.0043 0.9791
2.8815 3.9583 -2.0038 0.9791
1.7295 4.5767 -2.0024 0.9791
1.3141 4.7115 -2.0019 0.9791
0.4558 4.8676 -2.0009 0.9791
0.0198 4.8876 -2.0004 0.9791
-0.4161 4.8687 -1.9999 0.9791
-1.2740 4.7152 -1.9990 0.9791
-1.6891 4.5818 -1.9986 0.9791
-2.0906 4.4120 -1.9982 0.9791
-2.8403 3.9689 -1.9974 0.9791
-3.7881 3.0740 -1.9966 0.9791
-4.2732 2.3516 -1.9963 0.9791
-4.4657 1.9610 -1.9962 0.9791
-4.6226 1.5548 -1.9961 0.9791
-4.7428 1.1363 -1.9961 0.9791
-1.9449 0.1100 -0.7973 0.9916
-4.6599 -1.4452 -1.9968 0.9791
-4.5130 -1.8554 -1.9971 0.9791
-4.3302 -2.2508 -1.9974 0.9791
-4.1129 -2.6285 -1.9977 0.9791
-3.2722 -3.6258 -1.9989 0.9791
-2.9364 -3.9041 -1.9994 0.9791
-1.7993 -4.5454 -2.0008 0.9791
-0.0963 -4.8925 -2.0028 0.9791
0.3406 -4.8828 -2.0033 0.9791
0.7749 -4.8341 -2.0037 0.9791
1.2033 -4.7468 -2.0042 0.9791
1.6222 -4.6215 -2.0046 0.9791
2.0284 -4.4593 -2.0050 0.9790
2.7895 -4.0295 -2.0058 0.9790
3.1382 -3.7652 -2.0061 0.9790
3.4621 -3.4708 -2.0064 0.9790
3.7583 -3.1485 -2.0066 0.9790
4.4589 -2.0417 -2.0071 0.9790
4.6234 -1.6359 -2.0072 0.9790
4.7510 -1.2170 -2.0072 0.9790
4.8915 -0.3535 -2.0072 0.9790
4.8852 0.0838 -1.9997 0.9791
4.7047 1.3789 -2.0065 0.9790
4.5624 1.7928 -2.0063 0.9790
4.3836 2.1923 -2.0060 0.9790
4.1699 2.5741 -2.0056 0.9790
3.9230 2.9353 -2.0052 0.9790
3.3377 3.5841 -2.0044 0.9791
3.0040 3.8667 -2.0040 0.9791
2.2681 4.3369 -2.0030 0.9791
1.8718 4.5208 -2.0026 0.9791
0.1725 4.8851 -2.0006 0.9791
-0.6979 4.8357 -1.9996 0.9791
-2.3429 4.2827 -1.9979 0.9791
-2.7150 4.0559 -1.9976 0.9791
-3.0655 3.7970 -1.9972 0.9791
-3.3914 3.5079 -1.9970 0.9791
-3.6903 3.1910 -1.9967 0.9791
-3.9598 2.8488 -1.9965 0.9791
-4.1978 2.4841 -1.9963 0.9791
-4.7050 1.2839 -1.9961 0.9791
1.9277 4.1714 -2.0027 0.9801
1.5476 4.3258 -2.0022 0.9802
1.1553 4.4455 -2.0018 0.9802
0.3469 4.5779 -2.0008 0.9802
-1.6624 4.2742 -1.9987 0.9802
-2.3945 3.9094 -1.9980 0.9802
-2.7332 3.6796 -1.9976 0.9802
-3.6085 2.8236 -1.9969 0.9802
-3.8456 2.4903 -1.9967 0.9802
-4.0521 2.1372 -1.9966 0.9802
-4.2264 1.7672 -1.9965 0.9802
-1.5813 0.5008 -0.7229 0.9928
-1.5241 0.3367 -0.6802 0.9932
-1.5198 0.1958 -0.6678 0.9933
-1.5287 0.0593 -0.6667 0.9933
-1.5161 -0.2134 -0.6673 0.9933
-1.5334 -0.3577 -0.6862 0.9932
-1.5864 -0.5230 -0.7280 0.9927
-4.0290 -2.1859 -1.9977 0.9802
-3.8186 -2.5370 -1.9980 0.9802
-3.5777 -2.8680 -1.9984 0.9802
-3.3083 -3.1763 -1.9988 0.9802
-3.0124 -3.4594 -1.9992 0.9802
-2.3508 -3.9413 -2.0000 0.9802
-1.6139 -4.2982 -2.0009 0.9802
-1.2244 -4.4261 -2.0014 0.9802
-0.8249 -4.5187 -2.0019 0.9802
-0.4187 -4.5753 -2.0023 0.9802
-0.0089 -4.5955 -2.0028 0.9801
2.6860 -3.7366 -2.0056 0.9801
3.5808 -2.8933 -2.0064 0.9801
4.2200 -1.8425 -2.0068 0.9801
4.3677 -1.4588 -2.0069 0.9801
4.5574 -0.6595 -2.0069 0.9801
4.5979 -0.2504 -2.0068 0.9801
4.5687 0.5705 -2.0066 0.9801
4.2533 1.7591 -2.0059 0.9801
3.8718 2.4860 -2.0053 0.9801
3.6340 2.8210 -2.0050 0.9801
2.0572 4.1095 -2.0029 0.9801
1.6821 4.2756 -2.0024 0.9802
0.4898 4.5652 -2.0010 0.9802
-1.1366 4.4443 -1.9992 0.9802
-2.2713 3.9825 -1.9981 0.9802
-3.5186 2.9351 -1.9970 0.9802
-3.7660 2.6093 -1.9968 0.9802
-3.9835 2.2628 -1.9966 0.9802
-4.1692 1.8984 -1.9965 0.9802
-1.5262 -0.0294 -0.6653 0.9934
-1.5074 -0.3023 -0.6700 0.9933
-1.5716 -0.4642 -0.7142 0.9929
-4.2619 -1.6851 -1.9973 0.9802
-4.0952 -2.0588 -1.9976 0.9802
-3.8958 -2.4163 -1.9979 0.9802
-3.4057 -3.0711 -1.9986 0.9802
-3.1188 -3.3633 -1.9990 0.9802
-2.8070 -3.6288 -1.9994 0.9802
-2.4726 -3.8656 -1.9999 0.9802
-2.1185 -4.0716 -2.0003 0.9802
-1.7473 -4.2453 -2.0008 0.9802
-0.9656 -4.4903 -2.0017 0.9802
-0.1525 -4.5926 -2.0026 0.9801
0.6663 -4.5487 -2.0035 0.9801
1.4645 -4.3597 -2.0044 0.9801
2.2166 -4.0317 -2.0051 0.9801
2.8986 -3.5748 -2.0058 0.9801
3.2064 -3.3025 -2.0060 0.9801
3.4886 -3.0037 -2.0063 0.9801
3.9675 -2.3365 -2.0066 0.9801
4.1436 2.0028 -2.0057 0.9801
3.9479 2.3640 -2.0054 0.9801
3.7206 2.7062 -2.0051 0.9801
3.4638 3.0268 -2.0047 0.9801
2.5373 3.8334 -2.0035 0.9801
1.4309 4.3654 -2.0021 0.9802
-0.1858 4.5859 -2.0002 0.9802
-0.5940 4.5500 -1.9998 0.9802
-1.3924 4.3703 -1.9990 0.9802
-1.7763 4.2278 -1.9986 0.9802
-2.8308 3.6048 -1.9976 0.9802
-3.6828 2.7258 -1.9968 0.9802
-3.9109 2.3863 -1.9967 0.9802
-4.2722 1.6532 -1.9964 0.9802
-1.5248 0.0183 -0.6646 0.9934
-1.5526 -0.4063 -0.6994 0.9930
-1.5955 -0.5739 -0.7390 0.9926
-3.7494 -2.6386 -1.9981 0.9802
-3.2221 -3.2640 -1.9989 0.9802
-1.8789 -4.1883 -2.0006 0.9802
-1.4982 -4.3402 -2.0011 0.9802
-1.1053 -4.4576 -2.0015 0.9802
-0.2959 -4.5852 -2.0025 0.9802
0.1143 -4.5944 -2.0029 0.9801
0.5238 -4.5669 -2.0034 0.9801
1.3275 -4.4030 -2.0042 0.9801
1.7152 -4.2679 -2.0046 0.9801
2.7854 -3.6634 -2.0057 0.9801
3.1015 -3.4009 -2.0060 0.9801
3.6572 -2.7963 -2.0064 0.9801
3.8924 -2.4592 -2.0066 0.9801
4.0965 -2.1024 -2.0067 0.9801
4.2679 -1.7287 -2.0068 0.9801
4.6029 -0.1270 -2.0068 0.9801
4.5956 0.2840 -2.0067 0.9801
4.5516 0.6927 -2.0065 0.9801
4.0200 2.2396 -2.0055 0.9801
3.8036 2.5888 -2.0052 0.9801
2.6560 3.7525 -2.0036 0.9801
2.3102 3.9736 -2.0032 0.9801
1.9462 4.1629 -2.0027 0.9801
1.5667 4.3189 -2.0023 0.9802
1.1750 4.4404 -2.0018 0.9802
0.7741 4.5264 -2.0013 0.9802
-0.0425 4.5898 -2.0004 0.9802
-0.4516 4.5667 -2.0000 0.9802
-1.6435 4.2815 -1.9987 0.9802
-2.7169 3.6917 -1.9977 0.9802
-3.5960 2.8396 -1.9969 0.9802
-3.8346 2.5073 -1.9967 0.9802
-4.0426 2.1552 -1.9966 0.9802
-1.5290 0.0661 -0.6670 0.9933
-1.5292 -0.0705 -0.6672 0.9933
-1.5176 -0.2067 -0.6675 0.9933
-1.5299 -0.3497 -0.6840 0.9932
-4.2153 -1.7989 -1.9974 0.9802
-4.0387 -2.1680 -1.9977 0.9802
-3.8298 -2.5200 -1.9980 0.9802
-3.5904 -2.8521 -1.9984 0.9802
-3.3223 -3.1615 -1.9987 0.9802
-3.0277 -3.4459 -1.9991 0.9802
-2.7088 -3.7030 -1.9996 0.9802
-2.3683 -3.9307 -2.0000 0.9802
-2.0087 -4.1272 -2.0004 0.9802
-0.0293 -4.5953 -2.0028 0.9801
0.7880 -4.5295 -2.0037 0.9801
1.1891 -4.4420 -2.0041 0.9801
1.9602 -4.1617 -2.0049 0.9801
2.3241 -3.9710 -2.0052 0.9801
2.6694 -3.7485 -2.0056 0.9801
2.9936 -3.4960 -2.0059 0.9801
4.0288 -2.2293 -2.0067 0.9801
4.3612 -1.4781 -2.0069 0.9801
4.4757 -1.0833 -2.0069 0.9801
4.5968 -0.2708 -2.0068 0.9801
4.5712 0.5502 -2.0066 0.9801
3.6466 2.8049 -2.0050 0.9801
3.3812 3.1184 -2.0046 0.9801
2.0755 4.1004 -2.0029 0.9801
0.9152 4.5004 -2.0015 0.9802
0.5100 4.5630 -2.0010 0.9802
-0.3087 4.5790 -2.0001 0.9802
-0.7157 4.5322 -1.9997 0.9802
-1.8889 4.1784 -1.9985 0.9802
-2.2537 3.9926 -1.9981 0.9802
-2.9263 3.5275 -1.9975 0.9802
-3.2288 3.2520 -1.9972 0.9802
-3.5056 2.9507 -1.9970 0.9802
-4.1607 1.9169 -1.9965 0.9802
-1.5947 0.5684 -0.7378 0.9926
-1.5506 0.4011 -0.6980 0.9930
-1.5070 0.2491 -0.6657 0.9934
-1.5292 0.1141 -0.6683 0.9933
-1.5254 -0.0226 -0.6649 0.9934
-1.5035 -0.2946 -0.6677 0.9933
-1.5691 -0.4559 -0.7121 0.9929
-4.1042 -2.0406 -1.9976 0.9802
-3.9064 -2.3990 -1.9979 0.9802
-3.6775 -2.7383 -1.9982 0.9802
-3.4192 -3.0559 -1.9986 0.9802
-3.1337 -3.3494 -1.9990 0.9802
-2.4897 -3.8546 -1.9998 0.9802
-2.1365 -4.0622 -2.0003 0.9802
-0.9855 -4.4860 -2.0017 0.9802
-0.1728 -4.5918 -2.0026 0.9801
0.2375 -4.5900 -2.0031 0.9801
0.6461 -4.5515 -2.0035 0.9801
1.4451 -4.3661 -2.0044 0.9801
1.8291 -4.2207 -2.0047 0.9801
2.5509 -3.8298 -2.0055 0.9801
2.8827 -3.5876 -2.0058 0.9801
3.4752 -3.0191 -2.0063 0.9801
3.7310 -2.6974 -2.0065 0.9801
4.3128 -1.6137 -2.0068 0.9801
4.4396 -1.2226 -2.0069 0.9801
4.5861 -0.4143 -2.0068 0.9801
4.6046 -0.0036 -2.0068 0.9801
4.5863 0.4071 -2.0066 0.9801
4.4402 1.2153 -2.0063 0.9801
4.3135 1.6063 -2.0060 0.9801
4.1525 1.9844 -2.0057 0.9801
3.7326 2.6897 -2.0051 0.9801
3.1941 3.3089 -2.0043 0.9801
2.2027 4.0339 -2.0031 0.9801
0.2443 4.5843 -2.0007 0.9802
-0.1655 4.5867 -2.0003 0.9802
-0.9774 4.4824 -1.9994 0.9802
-1.7576 4.2357 -1.9986 0.9802
-2.8148 3.6174 -1.9976 0.9802
-3.1258 3.3514 -1.9973 0.9802
-3.4118 3.0589 -1.9970 0.9802
-1.5700 0.4588 -0.7128 0.9929
-1.5049 0.2973 -0.6685 0.9933
-1.5252 0.1618 -0.6684 0.9933
-1.5496 -0.3982 -0.6973 0.9930
-1.5943 -0.5655 -0.7372 0.9926
-4.1657 -1.9113 -1.9975 0.9802
-3.9793 -2.2756 -1.9978 0.9802
-3.7610 -2.6219 -1.9981 0.9802
-3.2366 -3.2496 -1.9989 0.9802
-2.9344 -3.5261 -1.9993 0.9802
-0.3162 -4.5838 -2.0024 0.9802
2.0712 -4.1079 -2.0050 0.9801
2.4298 -3.9075 -2.0053 0.9801
2.7691 -3.6757 -2.0057 0.9801
3.3790 -3.1261 -2.0062 0.9801
3.6448 -2.8125 -2.0064 0.9801
4.5710 -0.5574 -2.0069 0.9801
4.5969 0.2636 -2.0067 0.9801
4.5547 0.6725 -2.0065 0.9801
4.2127 1.8538 -2.0058 0.9801
4.0300 2.2218 -2.0056 0.9801
3.2962 3.2077 -2.0045 0.9801
2.9963 3.4882 -2.0041 0.9801
2.6727 3.7408 -2.0037 0.9801
1.1947 4.4352 -2.0018 0.9802
0.3875 4.5748 -2.0009 0.9802
-0.4313 4.5687 -2.0000 0.9802
-1.6245 4.2888 -1.9987 0.9802
-2.0001 4.1261 -1.9983 0.9802
-2.3598 3.9305 -1.9980 0.9802
-2.7005 3.7038 -1.9977 0.9802
-3.0197 3.4476 -1.9974 0.9802
-3.3147 3.1641 -1.9971 0.9802
-3.8234 2.5243 -1.9967 0.9802
-1.5311 0.3525 -0.6847 0.9932
-1.5171 0.2091 -0.6674 0.9933
-1.5264 -0.3418 -0.6817 0.9932
-4.0482 -2.1500 -1.9977 0.9802
-3.6030 -2.8361 -1.9983 0.9802
-3.3363 -3.1467 -1.9987 0.9802
-2.0269 -4.1183 -2.0004 0.9802
-1.2636 -4.4149 -2.0013 0.9802
-0.4592 -4.5713 -2.0023 0.9802
-0.0497 -4.5951 -2.0027 0.9801
0.7679 -4.5329 -2.0036 0.9801
1.1694 -4.4472 -2.0041 0.9801
1.9418 -4.1703 -2.0049 0.9801
2.9780 -3.5092 -2.0058 0.9801
3.2796 -3.2300 -2.0061 0.9801
3.5550 -2.9250 -2.0063 0.9801
3.8021 -2.5964 -2.0065 0.9801
4.4708 -1.1031 -2.0069 0.9801
4.5514 -0.6999 -2.0069 0.9801
4.5955 -0.2912 -2.0068 0.9801
4.6030 0.1199 -2.0067 0.9801
4.5736 0.5299 -2.0066 0.9801
4.5077 0.9357 -2.0064 0.9801
4.0976 2.0949 -2.0057 0.9801
3.6590 2.7887 -2.0050 0.9801
3.3950 3.1034 -2.0046 0.9801
3.1041 3.3931 -2.0042 0.9801
2.7885 3.6557 -2.0038 0.9801
2.0936 4.0912 -2.0029 0.9801
1.7200 4.2606 -2.0025 0.9802
1.3328 4.3961 -2.0020 0.9802
0.9352 4.4963 -2.0015 0.9802
0.5303 4.5608 -2.0011 0.9802
0.1213 4.5888 -2.0006 0.9802
-0.2884 4.5803 -2.0001 0.9802
-0.6956 4.5353 -1.9997 0.9802
-1.0972 4.4543 -1.9993 0.9802
-1.4898 4.3378 -1.9989 0.9802
-2.2360 4.0026 -1.9981 0.9802
-2.9106 3.5405 -1.9975 0.9802
-4.1522 1.9353 -1.9965 0.9802
-1.5959 0.5769 -0.7396 0.9926
-1.5288 0.1209 -0.6684 0.9933
-1.5245 -0.0159 -0.6644 0.9934
-1.5262 -0.1527 -0.6685 0.9933
-1.5666 -0.4477 -0.7101 0.9929
-4.2766 -1.6473 -1.9973 0.9802
-3.9170 -2.3816 -1.9979 0.9802
-3.4327 -3.0407 -1.9986 0.9802
-3.1485 -3.3355 -1.9990 0.9802
-2.8390 -3.6037 -1.9994 0.9802
-2.5068 -3.8434 -1.9998 0.9802
-2.1545 -4.0526 -2.0003 0.9802
