ply
format ascii 1.0
element vertex 1580
property float32 x
property float32 y
property float32 z
property float32 I
end_header
-8.2304 -8.9381 -2.0016 0.9519
-7.4004 -9.6366 -2.0016 0.9519
-5.5704 -10.7981 -2.0016 0.9519
-4.5851 -11.2519 -2.0016 0.9519
-2.5129 -11.8876 -2.0016 0.9519
-0.3608 -12.1449 -2.0016 0.9519
0.7239 -12.1287 -2.0016 0.9519
1.8029 -12.0158 -2.0016 0.9519
4.9197 -11.1098 -2.0016 0.9519
5.8910 -10.6267 -2.0016 0.9519
6.8153 -10.0589 -2.0016 0.9519
7.6854 -9.4109 -2.0016 0.9519
8.4941 -8.6879 -2.0016 0.9519
9.9026 -7.0404 -2.0016 0.9519
10.4911 -6.1291 -2.0016 0.9519
11.4132 -4.1675 -2.0016 0.9519
11.7394 -3.1329 -2.0016 0.9519
11.9721 -2.0733 -2.0016 0.9519
12.1093 -0.9972 -2.0016 0.9519
12.1500 0.0868 -2.0016 0.9519
12.0938 1.1702 -2.0016 0.9519
11.9412 2.2442 -2.0016 0.9519
7.7319 8.1377 -1.8492 0.9555
6.1630 9.3820 -1.8492 0.9555
5.3016 9.8944 -1.8492 0.9555
4.3979 10.3278 -1.8492 0.9555
0.5086 11.2137 -1.8492 0.9555
-0.4936 11.2143 -1.8492 0.9555
-1.4919 11.1256 -1.8492 0.9555
-2.4783 10.9482 -1.8492 0.9555
-5.2883 9.9014 -1.8492 0.9555
-6.1505 9.3903 -1.8492 0.9555
-6.9038 8.7288 -1.8334 0.9559
-7.7210 8.1480 -1.8492 0.9555
-8.5466 7.5413 -1.8777 0.9548
-9.7799 7.1859 -1.9993 0.9520
-12.1499 0.1030 -2.0016 0.9519
-11.7436 -3.1173 -2.0016 0.9519
-11.4187 -4.1523 -2.0016 0.9519
-11.0029 -5.1542 -2.0016 0.9519
-10.4993 -6.1151 -2.0016 0.9519
-9.2457 -7.8833 -2.0016 0.9519
-7.6979 -9.4006 -2.0016 0.9519
-4.9345 -11.1032 -2.0016 0.9519
-3.9245 -11.4990 -2.0016 0.9519
-1.8189 -12.0133 -2.0016 0.9519
3.5477 -11.6208 -2.0016 0.9519
4.5701 -11.2580 -2.0016 0.9519
5.5560 -10.8056 -2.0016 0.9519
7.3875 -9.6464 -2.0016 0.9519
10.2945 -6.4539 -2.0016 0.9519
11.2774 -4.5221 -2.0016 0.9519
12.0722 -1.3751 -2.0016 0.9519
12.1245 0.7917 -2.0016 0.9519
10.5936 5.9503 -2.0016 0.9519
7.2467 8.5727 -1.8492 0.9555
3.7912 10.5656 -1.8492 0.9555
2.8337 10.8616 -1.8492 0.9555
0.8588 11.1923 -1.8492 0.9555
-1.1435 11.1668 -1.8492 0.9555
-2.1350 11.0203 -1.8492 0.9555
-3.1094 10.7859 -1.8492 0.9555
-4.0591 10.4656 -1.8492 0.9555
-4.2449 8.5828 -1.5774 0.9619
-5.8540 9.5779 -1.8492 0.9555
-6.5317 8.8108 -1.8068 0.9565
-7.4627 8.3853 -1.8492 0.9555
-8.1808 7.6863 -1.8492 0.9555
-11.2053 4.6978 -2.0016 0.9519
-11.5797 3.6796 -2.0016 0.9519
-11.8618 2.6321 -2.0016 0.9519
-12.0492 1.5636 -2.0016 0.9519
-12.1407 0.4827 -2.0016 0.9519
-12.1354 -0.6021 -2.0016 0.9519
-12.0333 -1.6822 -2.0016 0.9519
-11.5429 -3.7934 -2.0016 0.9519
-7.9879 -9.1555 -2.0016 0.9519
-4.2819 -11.3708 -2.0016 0.9519
-2.1934 -11.9507 -2.0016 0.9519
-1.1187 -12.0987 -2.0016 0.9519
-0.0352 -12.1502 -2.0016 0.9519
6.1737 -10.4650 -2.0016 0.9519
7.9348 -9.2015 -2.0016 0.9519
8.7240 -8.4571 -2.0016 0.9519
9.4435 -7.6453 -2.0016 0.9519
10.6516 -5.8457 -2.0016 0.9519
11.5208 -3.8602 -2.0016 0.9519
12.0233 -1.7517 -2.0016 0.9519
12.1317 -0.6723 -2.0016 0.9519
12.1433 0.4125 -2.0016 0.9519
11.8768 2.5634 -2.0016 0.9519
11.2323 4.6329 -2.0016 0.9519
10.7743 5.6163 -2.0016 0.9519
10.2297 6.5545 -2.0015 0.9519
9.4481 7.3197 -1.9689 0.9527
8.2251 7.6389 -1.8492 0.9555
2.1987 11.0078 -1.8492 0.9555
1.2081 11.1600 -1.8492 0.9555
0.2079 11.2233 -1.8492 0.9555
-0.7940 11.1971 -1.8492 0.9555
-3.7300 10.5873 -1.8492 0.9555
-4.1005 8.9872 -1.6274 0.9607
-6.3999 9.2221 -1.8492 0.9555
-7.1970 8.6144 -1.8492 0.9555
-7.9366 7.9382 -1.8492 0.9555
-9.0009 7.5228 -1.9325 0.9536
-10.5590 6.0115 -2.0016 0.9519
-11.0531 5.0457 -2.0016 0.9519
-11.4591 4.0397 -2.0016 0.9519
-11.9945 1.9394 -2.0016 0.9519
-12.0800 -1.3053 -2.0016 0.9519
-11.9154 -2.3776 -2.0016 0.9519
-11.6558 -3.4309 -2.0016 0.9519
-10.8608 -5.4473 -2.0016 0.9519
-10.3316 -6.3943 -2.0016 0.9519
-9.0311 -8.1283 -2.0016 0.9519
-7.4432 -9.6036 -2.0016 0.9519
-5.6184 -10.7733 -2.0016 0.9519
-4.6351 -11.2314 -2.0016 0.9519
-2.5658 -11.8763 -2.0016 0.9519
-0.4148 -12.1432 -2.0016 0.9519
0.6700 -12.1318 -2.0016 0.9519
1.7494 -12.0237 -2.0016 0.9519
5.8437 -10.6528 -2.0016 0.9519
6.7705 -10.0891 -2.0016 0.9519
7.6434 -9.4450 -2.0016 0.9519
8.4554 -8.7256 -2.0016 0.9519
9.2000 -7.9366 -2.0016 0.9519
10.4638 -6.1757 -2.0016 0.9519
11.3945 -4.2183 -2.0016 0.9519
11.9627 -2.1266 -2.0016 0.9519
12.1502 0.0328 -2.0016 0.9519
11.7080 3.2483 -2.0016 0.9519
11.3716 4.2796 -2.0016 0.9519
10.9446 5.2769 -2.0016 0.9519
10.4303 6.2321 -2.0016 0.9519
9.4794 6.8809 -1.9297 0.9536
8.6517 7.5455 -1.8912 0.9545
7.0143 8.7638 -1.8492 0.9555
5.3456 9.8707 -1.8492 0.9555
4.4438 10.3081 -1.8492 0.9555
2.5416 10.9337 -1.8492 0.9555
1.5562 11.1168 -1.8492 0.9555
-8.4737 7.5442 -1.8690 0.9550
-9.7445 7.2268 -1.9986 0.9520
-10.3660 6.3385 -2.0016 0.9519
-10.8900 5.3886 -2.0016 0.9519
-11.3272 4.3958 -2.0016 0.9519
-11.6742 3.3680 -2.0016 0.9519
-11.9280 2.3133 -2.0016 0.9519
-11.0257 -5.1052 -2.0016 0.9519
-10.5264 -6.0683 -2.0016 0.9519
-9.9432 -6.9830 -2.0016 0.9519
-9.2807 -7.8421 -2.0016 0.9519
-8.5442 -8.6386 -2.0016 0.9519
-7.7397 -9.3663 -2.0016 0.9519
-5.9523 -10.5924 -2.0016 0.9519
-0.7940 -12.1243 -2.0016 0.9519
0.2905 -12.1468 -2.0016 0.9519
2.4441 -11.9019 -2.0016 0.9519
3.4960 -11.6365 -2.0016 0.9519
4.5199 -11.2783 -2.0016 0.9519
5.5079 -10.8302 -2.0016 0.9519
8.1786 -8.9855 -2.0016 0.9519
8.9475 -8.2202 -2.0016 0.9519
9.6450 -7.3894 -2.0016 0.9519
11.2572 -4.5723 -2.0016 0.9519
12.0660 -1.4288 -2.0016 0.9519
12.1453 -0.3469 -2.0016 0.9519
12.0137 1.8166 -2.0016 0.9519
10.6199 5.9031 -2.0016 0.9519
10.0012 6.7930 -1.9917 0.9522
8.0175 7.8565 -1.8492 0.9555
6.4939 9.1561 -1.8492 0.9555
4.7638 10.1642 -1.8492 0.9555
3.8382 10.5486 -1.8492 0.9555
2.8821 10.8489 -1.8492 0.9555
1.9029 11.0627 -1.8492 0.9555
0.9086 11.1884 -1.8492 0.9555
-0.0930 11.2248 -1.8492 0.9555
-2.0859 11.0297 -1.8492 0.9555
-3.0614 10.7997 -1.8492 0.9555
-4.0125 10.4836 -1.8492 0.9555
-4.1975 8.5830 -1.5740 0.9620
-5.8113 9.6038 -1.8492 0.9555
-6.5514 8.9200 -1.8232 0.9561
-7.4252 8.4185 -1.8492 0.9555
-9.4825 7.5030 -1.9920 0.9522
-10.1628 6.6593 -2.0016 0.9519
-11.8499 2.6849 -2.0016 0.9519
-12.1379 -0.5481 -2.0016 0.9519
-11.8474 -2.6961 -2.0016 0.9519
-11.5597 -3.7420 -2.0016 0.9519
-11.1799 -4.7582 -2.0016 0.9519
-10.7109 -5.7364 -2.0016 0.9519
-10.1565 -6.6689 -2.0016 0.9519
-9.5212 -7.5482 -2.0016 0.9519
-8.8100 -8.3674 -2.0016 0.9519
-7.1831 -9.7996 -2.0016 0.9519
-5.3277 -10.9200 -2.0016 0.9519
-4.3324 -11.3516 -2.0016 0.9519
-3.3027 -11.6928 -2.0016 0.9519
-1.1725 -12.0936 -2.0016 0.9519
-0.0892 -12.1500 -2.0016 0.9519
0.9948 -12.1095 -2.0016 0.9519
2.0710 -11.9725 -2.0016 0.9519
3.1306 -11.7400 -2.0016 0.9519
6.1270 -10.4923 -2.0016 0.9519
7.0385 -9.9040 -2.0016 0.9519
7.8938 -9.2367 -2.0016 0.9519
8.6862 -8.4958 -2.0016 0.9519
9.4094 -7.6872 -2.0016 0.9519
10.0575 -6.8173 -2.0016 0.9519
10.6255 -5.8931 -2.0016 0.9519
11.1088 -4.9218 -2.0016 0.9519
11.8065 -2.8697 -2.0016 0.9519
12.0154 -1.8052 -2.0016 0.9519
12.1450 0.3584 -2.0016 0.9519
12.0646 1.4403 -2.0016 0.9519
11.6168 3.5610 -2.0016 0.9519
11.2528 4.5829 -2.0016 0.9519
10.7992 5.5683 -2.0016 0.9519
10.2595 6.5094 -2.0016 0.9519
9.4519 7.2556 -1.9630 0.9528
8.2591 7.6022 -1.8492 0.9555
7.5481 8.3085 -1.8492 0.9555
5.9517 9.5175 -1.8492 0.9555
5.0791 10.0104 -1.8492 0.9555
3.2196 10.7536 -1.8492 0.9555
2.2476 10.9979 -1.8492 0.9555
1.2578 11.1545 -1.8492 0.9555
-0.7442 11.2005 -1.8492 0.9555
-1.7402 11.0895 -1.8492 0.9555
-4.6140 10.2331 -1.8492 0.9555
-9.9498 6.9736 -2.0016 0.9519
-11.0305 5.0948 -2.0016 0.9519
-11.4410 4.0906 -2.0016 0.9519
-11.9857 1.9928 -2.0016 0.9519
-12.1157 0.9157 -2.0016 0.9519
-12.0856 -1.2516 -2.0016 0.9519
-11.6710 -3.3790 -2.0016 0.9519
-11.3231 -4.4065 -2.0016 0.9519
-10.3600 -6.3483 -2.0016 0.9519
-9.7524 -7.2470 -2.0016 0.9519
-8.3097 -8.8645 -2.0016 0.9519
-7.4858 -9.5704 -2.0016 0.9519
-6.6024 -10.1999 -2.0016 0.9519
-4.6850 -11.2107 -2.0016 0.9519
-3.6664 -11.5839 -2.0016 0.9519
-2.6186 -11.8648 -2.0016 0.9519
2.7622 -11.8321 -2.0016 0.9519
3.8066 -11.5386 -2.0016 0.9519
4.8206 -11.1531 -2.0016 0.9519
6.7256 -10.1191 -2.0016 0.9519
10.4362 -6.2222 -2.0016 0.9519
10.9495 -5.2666 -2.0016 0.9519
11.3757 -4.2689 -2.0016 0.9519
11.9532 -2.1798 -2.0016 0.9519
12.1503 -0.0213 -2.0016 0.9519
11.9607 2.1379 -2.0016 0.9519
10.9680 5.2281 -2.0016 0.9519
10.4579 6.1856 -2.0016 0.9519
8.7276 7.5435 -1.9004 0.9543
6.2462 9.3268 -1.8492 0.9555
5.3894 9.8468 -1.8492 0.9555
4.4896 10.2883 -1.8492 0.9555
3.5541 10.6477 -1.8492 0.9555
2.5902 10.9223 -1.8492 0.9555
1.6057 11.1097 -1.8492 0.9555
0.6084 11.2087 -1.8492 0.9555
-0.3939 11.2183 -1.8492 0.9555
-3.3497 10.7137 -1.8492 0.9555
-4.5120 8.6316 -1.6045 0.9613
-8.4013 7.5471 -1.8605 0.9552
-11.6591 3.4199 -2.0016 0.9519
-11.9927 -1.9507 -2.0016 0.9519
-10.5533 -6.0214 -2.0016 0.9519
-7.7813 -9.3317 -2.0016 0.9519
-6.9179 -9.9886 -2.0016 0.9519
-4.0267 -11.4637 -2.0016 0.9519
-2.9881 -11.7771 -2.0016 0.9519
-1.9257 -11.9967 -2.0016 0.9519
0.2365 -12.1480 -2.0016 0.9519
3.4441 -11.6519 -2.0016 0.9519
4.4698 -11.2983 -2.0016 0.9519
8.1385 -9.0219 -2.0016 0.9519
10.2366 -6.5453 -2.0016 0.9519
10.7796 -5.6062 -2.0016 0.9519
11.2367 -4.6223 -2.0016 0.9519
11.6042 -3.6017 -2.0016 0.9519
12.0595 -1.4825 -2.0016 0.9519
12.1437 -0.4010 -2.0016 0.9519
12.1310 0.6838 -2.0016 0.9519
11.1260 4.8829 -2.0016 0.9519
10.0394 6.7538 -1.9933 0.9521
8.0523 7.8208 -1.8492 0.9555
7.3226 8.5079 -1.8492 0.9555
6.5346 9.1271 -1.8492 0.9555
5.6945 9.6736 -1.8492 0.9555
2.9302 10.8360 -1.8492 0.9555
1.9521 11.0542 -1.8492 0.9555
0.9583 11.1842 -1.8492 0.9555
-1.0441 11.1765 -1.8492 0.9555
-3.0133 10.8132 -1.8492 0.9555
-3.9658 10.5013 -1.8492 0.9555
-4.1516 8.5856 -1.5711 0.9621
-5.7685 9.6296 -1.8492 0.9555
-6.5478 8.9989 -1.8334 0.9559
-7.3877 8.4514 -1.8492 0.9555
-9.4006 7.5064 -1.9818 0.9524
-10.1331 6.7045 -2.0016 0.9519
-10.6907 5.7739 -2.0016 0.9519
-11.1631 4.7973 -2.0016 0.9519
-11.5465 3.7825 -2.0016 0.9519
-11.8379 2.7375 -2.0016 0.9519
-12.1402 -0.4941 -2.0016 0.9519
-12.0478 -1.5751 -2.0016 0.9519
-10.7363 -5.6887 -2.0016 0.9519
-9.5547 -7.5058 -2.0016 0.9519
-8.0691 -9.0840 -2.0016 0.9519
-6.3267 -10.3732 -2.0016 0.9519
-5.3762 -10.8962 -2.0016 0.9519
-4.3829 -11.3322 -2.0016 0.9519
0.9410 -12.1138 -2.0016 0.9519
2.0177 -11.9816 -2.0016 0.9519
3.0784 -11.7538 -2.0016 0.9519
5.1177 -11.0199 -2.0016 0.9519
-10.6492 -0.0045 -2.0016 0.9576
-10.6063 -0.9543 -2.0016 0.9576
-10.4789 -1.8965 -2.0016 0.9576
-10.2680 -2.8236 -2.0016 0.9576
-9.9752 -3.7282 -2.0016 0.9576
-9.6030 -4.6031 -2.0016 0.9576
-9.1541 -5.4413 -2.0016 0.9576
-8.6323 -6.2361 -2.0016 0.9576
-8.0416 -6.9812 -2.0016 0.9576
-6.6733 -8.2989 -2.0016 0.9576
-5.9065 -8.8611 -2.0016 0.9576
-4.2381 -9.7695 -2.0016 0.9576
-1.5004 -10.5429 -2.0016 0.9576
1.3443 -10.5640 -2.0016 0.9576
2.2812 -10.4020 -2.0016 0.9576
3.1999 -10.1570 -2.0016 0.9576
4.0931 -9.8311 -2.0016 0.9576
6.5498 -8.3967 -2.0016 0.9576
9.0726 -5.5761 -2.0016 0.9576
9.9190 -3.8753 -2.0016 0.9576
10.2251 -2.9752 -2.0016 0.9576
10.4497 -2.0513 -2.0016 0.9576
10.5911 -1.1111 -2.0016 0.9576
10.6479 -0.1620 -2.0016 0.9576
10.3109 2.6628 -2.0016 0.9576
10.0323 3.5719 -2.0016 0.9576
7.4773 7.5255 -1.9940 0.9577
5.5840 8.1001 -1.8492 0.9607
4.0560 8.9634 -1.8492 0.9607
3.2403 9.2895 -1.8492 0.9607
1.5382 9.7174 -1.8492 0.9607
-1.0893 9.7779 -1.8492 0.9607
-1.9571 9.6417 -1.8492 0.9607
-2.8093 9.4288 -1.8492 0.9607
-3.6391 9.1406 -1.8492 0.9607
-4.3087 8.5202 -1.7946 0.9619
-5.2053 8.3486 -1.8492 0.9607
-6.8322 7.5408 -1.9126 0.9594
-7.8165 7.2141 -1.9993 0.9576
-9.8572 4.0299 -2.0016 0.9576
-10.1774 3.1346 -2.0016 0.9576
-10.4164 2.2143 -2.0016 0.9576
-10.6441 0.3283 -2.0016 0.9576
-10.6310 -0.6224 -2.0016 0.9576
-10.5331 -1.5681 -2.0016 0.9576
-10.3512 -2.5014 -2.0016 0.9576
-10.0869 -3.4147 -2.0016 0.9576
-9.7421 -4.3008 -2.0016 0.9576
-9.3197 -5.1526 -2.0016 0.9576
-8.8229 -5.9633 -2.0016 0.9576
-7.6230 -7.4360 -2.0016 0.9576
-6.1805 -8.6722 -2.0016 0.9576
-4.5413 -9.6323 -2.0016 0.9576
-2.7576 -10.2859 -2.0016 0.9576
-1.8291 -10.4909 -2.0016 0.9576
-0.8861 -10.6122 -2.0016 0.9576
0.0640 -10.6490 -2.0016 0.9576
1.0135 -10.6008 -2.0016 0.9576
1.9550 -10.4682 -2.0016 0.9576
2.8810 -10.2521 -2.0016 0.9576
3.7839 -9.9542 -2.0016 0.9576
4.6567 -9.5771 -2.0016 0.9576
6.2842 -8.5973 -2.0016 0.9576
7.0260 -8.0025 -2.0016 0.9576
7.7118 -7.3439 -2.0016 0.9576
9.3809 -5.0402 -2.0016 0.9576
9.7931 -4.1834 -2.0016 0.9576
10.3805 -2.3768 -2.0016 0.9576
10.6377 -0.4946 -2.0016 0.9576
10.6394 0.4562 -2.0016 0.9576
10.5563 1.4033 -2.0016 0.9576
10.3891 2.3393 -2.0016 0.9576
10.1390 3.2566 -2.0016 0.9576
9.8081 4.1480 -2.0016 0.9576
9.3990 5.0063 -2.0016 0.9576
7.7235 7.3020 -1.9978 0.9577
6.6723 7.5444 -1.8931 0.9598
5.8344 7.9217 -1.8492 0.9607
5.1046 8.4105 -1.8492 0.9607
3.5290 9.1837 -1.8492 0.9607
2.6958 9.4618 -1.8492 0.9607
1.8411 9.6646 -1.8492 0.9607
-2.5133 9.5119 -1.8492 0.9607
-3.3517 9.2498 -1.8492 0.9607
-4.0377 8.6449 -1.7934 0.9619
-4.9418 8.5072 -1.8492 0.9607
-7.5726 7.4405 -1.9955 0.9577
-8.2315 6.7563 -2.0016 0.9576
-9.3010 5.1862 -2.0016 0.9576
-9.7265 4.3359 -2.0016 0.9576
-10.5274 1.6062 -2.0016 0.9576
-10.6287 0.6608 -2.0016 0.9576
-10.5769 -1.2382 -2.0016 0.9576
-10.4244 -2.1767 -2.0016 0.9576
-10.1886 -3.0978 -2.0016 0.9576
-9.8717 -3.9942 -2.0016 0.9576
-7.8517 -7.1942 -2.0016 0.9576
-7.1787 -7.8659 -2.0016 0.9576
-3.9747 -9.8796 -2.0016 0.9576
-0.2688 -10.6458 -2.0016 0.9576
0.6818 -10.6273 -2.0016 0.9576
1.6270 -10.5242 -2.0016 0.9576
2.5592 -10.3371 -2.0016 0.9576
4.3551 -9.7179 -2.0016 0.9576
5.2046 -9.2907 -2.0016 0.9576
6.0125 -8.7895 -2.0016 0.9576
8.7066 -6.1319 -2.0016 0.9576
9.2188 -5.3309 -2.0016 0.9576
10.3012 -2.7000 -2.0016 0.9576
10.5010 -1.7705 -2.0016 0.9576
10.6170 -0.8268 -2.0016 0.9576
10.6485 0.1235 -2.0016 0.9576
10.2358 2.9382 -2.0016 0.9576
7.9631 7.0706 -2.0016 0.9576
7.0954 7.5347 -1.9453 0.9588
5.3649 8.2469 -1.8492 0.9607
4.6080 8.6925 -1.8492 0.9607
2.1422 9.6023 -1.8492 0.9607
1.2772 9.7551 -1.8492 0.9607
-1.3510 9.7452 -1.8492 0.9607
-3.8828 9.0398 -1.8492 0.9607
-4.6736 8.6574 -1.8492 0.9607
-5.4272 8.2061 -1.8492 0.9607
-6.1374 7.6893 -1.8492 0.9607
-8.0164 7.0102 -2.0016 0.9576
-9.1344 5.4743 -2.0016 0.9576
-10.2578 2.8607 -2.0016 0.9576
-10.6028 0.9926 -2.0016 0.9576
-10.6105 -0.9071 -2.0016 0.9576
-10.2805 -2.7779 -2.0016 0.9576
-9.9917 -3.6838 -2.0016 0.9576
-9.6233 -4.5603 -2.0016 0.9576
-9.1782 -5.4005 -2.0016 0.9576
-7.4210 -7.6377 -2.0016 0.9576
-6.7101 -8.2691 -2.0016 0.9576
-5.1341 -9.3298 -2.0016 0.9576
-3.3947 -10.0936 -2.0016 0.9576
0.3494 -10.6434 -2.0016 0.9576
1.2973 -10.5699 -2.0016 0.9576
2.2349 -10.4120 -2.0016 0.9576
6.5124 -8.4258 -2.0016 0.9576
7.2380 -7.8113 -2.0016 0.9576
8.5107 -6.4010 -2.0016 0.9576
9.9017 -3.9194 -2.0016 0.9576
10.2118 -3.0206 -2.0016 0.9576
10.4405 -2.0978 -2.0016 0.9576
10.6234 0.7412 -2.0016 0.9576
10.5149 1.6858 -2.0016 0.9576
9.6934 4.4094 -2.0016 0.9576
9.2615 5.2564 -2.0016 0.9576
7.5127 7.4942 -1.9945 0.9577
6.3293 7.5554 -1.8526 0.9607
5.6200 8.0752 -1.8492 0.9607
2.4412 9.5307 -1.8492 0.9607
1.5814 9.7104 -1.8492 0.9607
0.7090 9.8128 -1.8492 0.9607
-1.0458 9.7826 -1.8492 0.9607
-1.9142 9.6504 -1.8492 0.9607
-2.7673 9.4412 -1.8492 0.9607
-3.5984 9.1567 -1.8492 0.9607
-5.1681 8.3717 -1.8492 0.9607
-6.7726 7.5422 -1.9053 0.9596
-8.4096 6.5332 -2.0016 0.9576
-8.9588 5.7571 -2.0016 0.9576
-9.4366 4.9351 -2.0016 0.9576
-10.4065 2.2606 -2.0016 0.9576
-10.3623 -2.4553 -2.0016 0.9576
-6.9653 -8.0554 -2.0016 0.9576
-6.2190 -8.6446 -2.0016 0.9576
-3.7085 -9.9826 -2.0016 0.9576
-1.8758 -10.4827 -2.0016 0.9576
-0.9333 -10.6082 -2.0016 0.9576
0.0166 -10.6491 -2.0016 0.9576
1.9084 -10.4768 -2.0016 0.9576
2.8353 -10.2648 -2.0016 0.9576
7.6790 -7.3782 -2.0016 0.9576
8.8678 -5.8964 -2.0016 0.9576
9.7744 -4.2269 -2.0016 0.9576
10.1124 -3.3383 -2.0016 0.9576
10.5446 -1.4884 -2.0016 0.9576
10.6354 -0.5420 -2.0016 0.9576
10.6413 0.4088 -2.0016 0.9576
10.5624 1.3564 -2.0016 0.9576
10.3994 2.2930 -2.0016 0.9576
9.8265 4.1043 -2.0016 0.9576
9.4212 4.9644 -2.0016 0.9576
8.9409 5.7850 -2.0016 0.9576
6.7311 7.5431 -1.9002 0.9597
5.8696 7.8957 -1.8492 0.9607
4.3733 8.8129 -1.8492 0.9607
3.5698 9.1679 -1.8492 0.9607
2.7379 9.4497 -1.8492 0.9607
1.8841 9.6563 -1.8492 0.9607
1.0153 9.7858 -1.8492 0.9607
0.1384 9.8374 -1.8492 0.9607
-1.6117 9.7055 -1.8492 0.9607
-2.4709 9.5230 -1.8492 0.9607
-3.3105 9.2647 -1.8492 0.9607
-4.9039 8.5291 -1.8492 0.9607
-6.3659 7.5512 -1.8564 0.9606
-8.2014 6.7928 -2.0016 0.9576
-10.3307 2.5848 -2.0016 0.9576
-10.6256 0.7081 -2.0016 0.9576
-10.5823 -1.1912 -2.0016 0.9576
-9.4976 -4.8166 -2.0016 0.9576
-9.0302 -5.6446 -2.0016 0.9576
-7.2136 -7.8338 -2.0016 0.9576
-6.4861 -8.4460 -2.0016 0.9576
-5.7069 -8.9909 -2.0016 0.9576
-4.0186 -9.8618 -2.0016 0.9576
-3.1230 -10.1809 -2.0016 0.9576
-1.2644 -10.5739 -2.0016 0.9576
-0.3162 -10.6445 -2.0016 0.9576
0.6345 -10.6303 -2.0016 0.9576
1.5801 -10.5313 -2.0016 0.9576
4.3119 -9.7372 -2.0016 0.9576
5.1632 -9.3138 -2.0016 0.9576
6.7359 -8.2482 -2.0016 0.9576
7.4447 -7.6145 -2.0016 0.9576
9.1950 -5.3719 -2.0016 0.9576
10.0031 -3.6527 -2.0016 0.9576
10.6489 0.0761 -2.0016 0.9576
10.5997 1.0256 -2.0016 0.9576
10.4659 1.9670 -2.0016 0.9576
9.5718 4.6676 -2.0016 0.9576
9.1173 5.5027 -2.0016 0.9576
3.8546 9.0518 -1.8492 0.9607
2.1850 9.5927 -1.8492 0.9607
1.3206 9.7493 -1.8492 0.9607
-1.3076 9.7511 -1.8492 0.9607
-4.5548 8.5280 -1.8172 0.9614
-5.3906 8.2301 -1.8492 0.9607
-9.1099 5.5149 -2.0016 0.9576
-10.2449 2.9063 -2.0016 0.9576
-10.6488 0.0903 -2.0016 0.9576
-10.0080 -3.6393 -2.0016 0.9576
-8.1034 -6.9094 -2.0016 0.9576
-6.7469 -8.2392 -2.0016 0.9576
-5.1756 -9.3069 -2.0016 0.9576
-4.3249 -9.7314 -2.0016 0.9576
-2.5270 -10.3450 -2.0016 0.9576
-0.6487 -10.6294 -2.0016 0.9576
1.2502 -10.5755 -2.0016 0.9576
2.1886 -10.4219 -2.0016 0.9576
4.0055 -9.8672 -2.0016 0.9576
4.8696 -9.4706 -2.0016 0.9576
5.6949 -8.9985 -2.0016 0.9576
9.8841 -3.9634 -2.0016 0.9576
10.1983 -3.0661 -2.0016 0.9576
10.4311 -2.1442 -2.0016 0.9576
10.5808 -1.2053 -2.0016 0.9576
10.6461 -0.2567 -2.0016 0.9576
10.5223 1.6390 -2.0016 0.9576
10.3342 2.5709 -2.0016 0.9576
10.0637 3.4825 -2.0016 0.9576
9.7129 4.3662 -2.0016 0.9576
7.5480 7.4626 -1.9951 0.9577
6.3829 7.5508 -1.8584 0.9606
4.1356 8.9270 -1.8492 0.9607
3.3229 9.2602 -1.8492 0.9607
1.6246 9.7033 -1.8492 0.9607
0.7527 9.8095 -1.8492 0.9607
-1.0023 9.7872 -1.8492 0.9607
-2.7253 9.4534 -1.8492 0.9607
-3.5576 9.1726 -1.8492 0.9607
-4.2136 8.5196 -1.7865 0.9621
-5.8591 7.9035 -1.8492 0.9607
-7.7477 7.2793 -1.9982 0.9577
-10.1491 3.2250 -2.0016 0.9576
-10.5606 1.3705 -2.0016 0.9576
-10.6408 0.4230 -2.0016 0.9576
-10.6361 -0.5277 -2.0016 0.9576
-10.5466 -1.4744 -2.0016 0.9576
-10.3731 -2.4092 -2.0016 0.9576
-9.7800 -4.2139 -2.0016 0.9576
-8.3154 -6.6528 -2.0016 0.9576
-5.4639 -9.1406 -2.0016 0.9576
-4.6268 -9.5915 -2.0016 0.9576
-1.9224 -10.4742 -2.0016 0.9576
-0.0308 -10.6491 -2.0016 0.9576
0.9192 -10.6094 -2.0016 0.9576
1.8618 -10.4852 -2.0016 0.9576
2.7896 -10.2773 -2.0016 0.9576
3.6952 -9.9875 -2.0016 0.9576
5.4109 -9.1721 -2.0016 0.9576
6.9545 -8.0647 -2.0016 0.9576
7.6461 -7.4122 -2.0016 0.9576
8.2768 -6.7007 -2.0016 0.9576
9.3357 -5.1235 -2.0016 0.9576
9.7554 -4.2704 -2.0016 0.9576
10.0975 -3.3833 -2.0016 0.9576
10.5379 -1.5353 -2.0016 0.9576
10.5684 1.3093 -2.0016 0.9576
10.1676 3.1663 -2.0016 0.9576
9.8446 4.0605 -2.0016 0.9576
8.9665 5.7451 -2.0016 0.9576
5.9047 7.8694 -1.8492 0.9607
5.1792 8.3648 -1.8492 0.9607
4.4125 8.7934 -1.8492 0.9607
3.6106 9.1519 -1.8492 0.9607
2.7799 9.4375 -1.8492 0.9607
1.0588 9.7812 -1.8492 0.9607
0.1822 9.8367 -1.8492 0.9607
-0.6959 9.8137 -1.8492 0.9607
-1.5685 9.7125 -1.8492 0.9607
-2.4285 9.5339 -1.8492 0.9607
-4.8659 8.5508 -1.8492 0.9607
-5.6092 8.0827 -1.8492 0.9607
-7.5021 7.5036 -1.9944 0.9577
-8.7476 6.0732 -2.0016 0.9576
-9.6875 4.4223 -2.0016 0.9576
-10.3191 2.6307 -2.0016 0.9576
-10.6474 -0.1951 -2.0016 0.9576
-10.5875 -1.1441 -2.0016 0.9576
-10.4433 -2.0838 -2.0016 0.9576
-9.9069 -3.9062 -2.0016 0.9576
-9.5190 -4.7743 -2.0016 0.9576
-8.5192 -6.3896 -2.0016 0.9576
-7.9154 -7.1240 -2.0016 0.9576
-7.2484 -7.8017 -2.0016 0.9576
-4.9243 -9.4423 -2.0016 0.9576
-4.0625 -9.8438 -2.0016 0.9576
-3.1683 -10.1669 -2.0016 0.9576
-1.3114 -10.5681 -2.0016 0.9576
-0.3636 -10.6430 -2.0016 0.9576
0.5872 -10.6330 -2.0016 0.9576
5.1217 -9.3367 -2.0016 0.9576
5.9341 -8.8426 -2.0016 0.9576
8.0634 -6.9561 -2.0016 0.9576
8.6517 -6.2092 -2.0016 0.9576
9.6172 -4.5732 -2.0016 0.9576
9.9868 -3.6971 -2.0016 0.9576
10.6093 -0.9212 -2.0016 0.9576
10.6491 0.0287 -2.0016 0.9576
10.6041 0.9784 -2.0016 0.9576
10.4746 1.9204 -2.0016 0.9576
10.2616 2.8470 -2.0016 0.9576
9.5924 4.6250 -2.0016 0.9576
9.1417 5.4621 -2.0016 0.9576
8.6181 6.2557 -2.0016 0.9576
8.0257 6.9995 -2.0016 0.9576
7.2202 7.5318 -1.9611 0.9584
5.4381 8.1988 -1.8492 0.9607
0.4895 9.8262 -1.8492 0.9607
-2.1294 9.6052 -1.8492 0.9607
-3.8022 9.0740 -1.8492 0.9607
-5.3539 8.2540 -1.8492 0.9607
-6.0688 7.7436 -1.8492 0.9607
-7.0769 7.5352 -1.9430 0.9588
-8.5536 6.3436 -2.0016 0.9576
-10.2319 2.9519 -2.0016 0.9576
-10.4544 2.0275 -2.0016 0.9576
-10.6483 0.1377 -2.0016 0.9576
-10.6181 -0.8126 -2.0016 0.9576
-10.5033 -1.7565 -2.0016 0.9576
-10.0241 -3.5947 -2.0016 0.9576
-8.7147 -6.1203 -2.0016 0.9576
-8.1341 -6.8732 -2.0016 0.9576
-7.4886 -7.5714 -2.0016 0.9576
-6.7835 -8.2091 -2.0016 0.9576
-5.2169 -9.2838 -2.0016 0.9576
-3.4844 -10.0630 -2.0016 0.9576
-1.6410 -10.5220 -2.0016 0.9576
-0.6959 -10.6264 -2.0016 0.9576
0.2546 -10.6461 -2.0016 0.9576
1.2032 -10.5810 -2.0016 0.9576
2.1422 -10.4315 -2.0016 0.9576
4.8274 -9.4921 -2.0016 0.9576
6.4371 -8.4834 -2.0016 0.9576
10.4214 -2.1906 -2.0016 0.9576
10.5753 -1.2523 -2.0016 0.9576
10.6448 -0.3041 -2.0016 0.9576
10.6295 0.6466 -2.0016 0.9576
10.5295 1.5921 -2.0016 0.9576
10.3455 2.5250 -2.0016 0.9576
9.3079 5.1738 -2.0016 0.9576
6.4396 7.5496 -1.8651 0.9604
4.1752 8.9085 -1.8492 0.9607
3.3640 9.2454 -1.8492 0.9607
2.5260 9.5086 -1.8492 0.9607
0.7963 9.8061 -1.8492 0.9607
-0.0815 9.8380 -1.8492 0.9607
-3.5167 9.1883 -1.8492 0.9607
-4.1664 8.5194 -1.7825 0.9621
-5.0934 8.4173 -1.8492 0.9607
-6.6547 7.5448 -1.8909 0.9599
-7.7131 7.3117 -1.9976 0.9577
-8.9072 5.8366 -2.0016 0.9576
-10.1347 3.2701 -2.0016 0.9576
-10.3859 2.3532 -2.0016 0.9576
-9.3876 -5.0277 -2.0016 0.9576
-8.9017 -5.8450 -2.0016 0.9576
-7.7216 -7.3336 -2.0016 0.9576
-7.0367 -7.9931 -2.0016 0.9576
-6.2957 -8.5889 -2.0016 0.9576
-4.6695 -9.5708 -2.0016 0.9576
-3.7972 -9.9492 -2.0016 0.9576
-1.9690 -10.4656 -2.0016 0.9576
-0.0782 -10.6489 -2.0016 0.9576
0.8719 -10.6134 -2.0016 0.9576
1.8152 -10.4933 -2.0016 0.9576
4.5284 -9.6384 -2.0016 0.9576
7.6131 -7.4462 -2.0016 0.9576
8.2469 -6.7375 -2.0016 0.9576
10.0823 -3.4281 -2.0016 0.9576
10.3479 -2.5152 -2.0016 0.9576
10.5310 -1.5822 -2.0016 0.9576
9.8626 4.0167 -2.0016 0.9576
8.9920 5.7052 -2.0016 0.9576
7.8268 7.2042 -1.9995 0.9576
4.4516 8.7737 -1.8492 0.9607
3.6513 9.1357 -1.8492 0.9607
2.8219 9.4250 -1.8492 0.9607
1.9700 9.6391 -1.8492 0.9607
1.1024 9.7764 -1.8492 0.9607
0.2259 9.8358 -1.8492 0.9607
-0.6522 9.8167 -1.8492 0.9607
-3.2279 9.2938 -1.8492 0.9607
-5.5732 8.1076 -1.8492 0.9607
-6.2742 7.5782 -1.8492 0.9607
-8.1406 6.8655 -2.0016 0.9576
-8.7205 6.1121 -2.0016 0.9576
-9.2309 5.3099 -2.0016 0.9576
-9.6677 4.4654 -2.0016 0.9576
-10.5050 1.7466 -2.0016 0.9576
-10.6482 -0.1478 -2.0016 0.9576
-10.4525 -2.0374 -2.0016 0.9576
-10.2291 -2.9615 -2.0016 0.9576
-9.0800 -5.5639 -2.0016 0.9576
-8.5476 -6.3517 -2.0016 0.9576
-7.9470 -7.0888 -2.0016 0.9576
-5.7867 -8.9397 -2.0016 0.9576
-4.9663 -9.4202 -2.0016 0.9576
-3.2135 -10.1528 -2.0016 0.9576
-2.2951 -10.3989 -2.0016 0.9576
-0.4109 -10.6412 -2.0016 0.9576
1.4864 -10.5449 -2.0016 0.9576
3.3363 -10.1131 -2.0016 0.9576
5.0801 -9.3594 -2.0016 0.9576
5.8947 -8.8689 -2.0016 0.9576
6.6622 -8.3078 -2.0016 0.9576
7.3767 -7.6805 -2.0016 0.9576
8.0323 -6.9919 -2.0016 0.9576
8.6240 -6.2476 -2.0016 0.9576
9.5968 -4.6159 -2.0016 0.9576
10.2642 -2.8373 -2.0016 0.9576
10.6084 0.9313 -2.0016 0.9576
10.2741 2.8013 -2.0016 0.9576
9.9833 3.7065 -2.0016 0.9576
9.6129 4.5822 -2.0016 0.9576
9.1659 5.4214 -2.0016 0.9576
7.2834 7.5303 -1.9691 0.9583
3.9350 9.0172 -1.8492 0.9607
-0.3452 9.8323 -1.8492 0.9607
-1.2208 9.7623 -1.8492 0.9607
-2.0867 9.6145 -1.8492 0.9607
-3.7617 9.0908 -1.8492 0.9607
-5.3172 8.2778 -1.8492 0.9607
-6.0343 7.7705 -1.8492 0.9607
-7.9195 7.1143 -2.0010 0.9576
-8.5252 6.3816 -2.0016 0.9576
-9.5235 4.7653 -2.0016 0.9576
-9.9106 3.8968 -2.0016 0.9576
-10.4453 2.0740 -2.0016 0.9576
-10.5886 1.1341 -2.0016 0.9576
-10.6216 -0.7654 -2.0016 0.9576
-10.5110 -1.7097 -2.0016 0.9576
-10.0400 -3.5501 -2.0016 0.9576
-9.6833 -4.4315 -2.0016 0.9576
-7.5223 -7.5379 -2.0016 0.9576
-6.8200 -8.1788 -2.0016 0.9576
-6.0632 -8.7546 -2.0016 0.9576
-4.4113 -9.6926 -2.0016 0.9576
-1.6878 -10.5146 -2.0016 0.9576
2.0957 -10.4409 -2.0016 0.9576
3.0186 -10.2124 -2.0016 0.9576
6.3993 -8.5120 -2.0016 0.9576
7.8099 -7.2395 -2.0016 0.9576
8.4245 -6.5140 -2.0016 0.9576
9.4479 -4.9135 -2.0016 0.9576
9.8485 -4.0513 -2.0016 0.9576
10.5696 -1.2994 -2.0016 0.9576
10.6323 0.5993 -2.0016 0.9576
10.5365 1.5452 -2.0016 0.9576
10.3567 2.4789 -2.0016 0.9576
9.3308 5.1323 -2.0016 0.9576
8.2705 6.7085 -2.0016 0.9576
5.7273 7.9995 -1.8492 0.9607
4.2149 8.8898 -1.8492 0.9607
3.4051 9.2303 -1.8492 0.9607
1.7109 9.6885 -1.8492 0.9607
-0.9151 9.7957 -1.8492 0.9607
-1.7852 9.6750 -1.8492 0.9607
-2.6411 9.4772 -1.8492 0.9607
-3.4758 9.2039 -1.8492 0.9607
-4.1194 8.5191 -1.7786 0.9622
-5.0558 8.4399 -1.8492 0.9607
-7.6784 7.3439 -1.9971 0.9577
-8.8812 5.8762 -2.0016 0.9576
-9.3699 5.0606 -2.0016 0.9576
-9.7840 4.2046 -2.0016 0.9576
-10.3754 2.3994 -2.0016 0.9576
-10.5480 1.4644 -2.0016 0.9576
-10.6404 -0.4330 -2.0016 0.9576
-10.3941 -2.3168 -2.0016 0.9576
-10.1460 -3.2346 -2.0016 0.9576
-9.8171 -4.1267 -2.0016 0.9576
-8.9277 -5.8053 -2.0016 0.9576
-7.7541 -7.2992 -2.0016 0.9576
-6.3339 -8.5608 -2.0016 0.9576
-3.8414 -9.9322 -2.0016 0.9576
-2.9402 -10.2352 -2.0016 0.9576
-2.0156 -10.4567 -2.0016 0.9576
-1.0749 -10.5948 -2.0016 0.9576
-0.1256 -10.6484 -2.0016 0.9576
0.8248 -10.6172 -2.0016 0.9576
1.7685 -10.5013 -2.0016 0.9576
4.4855 -9.6584 -2.0016 0.9576
-9.4693 -0.0040 -2.0016 0.9620
-9.4312 -0.8486 -2.0016 0.9620
-9.3180 -1.6864 -2.0016 0.9620
-9.1304 -2.5108 -2.0016 0.9620
-8.8701 -3.3152 -2.0016 0.9620
-8.1399 -4.8384 -2.0016 0.9620
-7.6759 -5.5452 -2.0016 0.9620
-7.1507 -6.2077 -2.0016 0.9620
-6.5685 -6.8208 -2.0016 0.9620
-5.9339 -7.3795 -2.0016 0.9620
-5.2521 -7.8793 -2.0016 0.9620
-2.1651 -9.2185 -2.0016 0.9620
-1.3342 -9.3749 -2.0016 0.9620
-0.4927 -9.4565 -2.0016 0.9620
0.3528 -9.4628 -2.0016 0.9620
1.1954 -9.3936 -2.0016 0.9620
2.0285 -9.2495 -2.0016 0.9620
2.8454 -9.0317 -2.0016 0.9620
3.6396 -8.7419 -2.0016 0.9620
4.4049 -8.3825 -2.0016 0.9620
5.1350 -7.9562 -2.0016 0.9620
6.4669 -6.9172 -2.0016 0.9620
7.0581 -6.3128 -2.0016 0.9620
8.0675 -4.9583 -2.0016 0.9620
9.2920 -1.8240 -2.0016 0.9620
9.4177 -0.9880 -2.0016 0.9620
9.4682 -0.1440 -2.0016 0.9620
9.1685 2.3678 -2.0016 0.9620
8.9208 3.1762 -2.0016 0.9620
8.2145 4.7106 -2.0016 0.9620
7.7616 5.4246 -2.0016 0.9620
7.2468 6.0952 -2.0016 0.9620
6.6743 6.7173 -2.0016 0.9620
6.0384 7.2737 -1.9983 0.9621
5.1956 7.5367 -1.9350 0.9633
3.6066 7.9704 -1.8492 0.9649
2.1331 8.4844 -1.8492 0.9649
-0.1892 8.7463 -1.8492 0.9649
-0.9686 8.6946 -1.8492 0.9649
-2.4980 8.3841 -1.8492 0.9649
-3.2359 8.1279 -1.8492 0.9649
-4.7054 7.5468 -1.8799 0.9643
-5.6836 7.5258 -1.9935 0.9622
-7.5037 5.7761 -2.0016 0.9620
-8.4106 4.3509 -2.0016 0.9620
-9.0498 2.7873 -2.0016 0.9620
-9.2624 1.9690 -2.0016 0.9620
-9.4532 -0.5534 -2.0016 0.9620
-9.2044 -2.2243 -2.0016 0.9620
-8.9693 -3.0364 -2.0016 0.9620
-8.6628 -3.8243 -2.0016 0.9620
-8.2871 -4.5817 -2.0016 0.9620
-7.3412 -5.9812 -2.0016 0.9620
-6.1617 -7.1904 -2.0016 0.9620
-4.7860 -8.1708 -2.0016 0.9620
-4.0382 -8.5651 -2.0016 0.9620
-3.2581 -8.8912 -2.0016 0.9620
-0.7879 -9.4365 -2.0016 0.9620
2.5618 -9.1162 -2.0016 0.9620
4.8838 -8.1127 -2.0016 0.9620
5.5880 -7.6448 -2.0016 0.9620
6.2476 -7.1159 -2.0016 0.9620
7.9086 -5.2080 -2.0016 0.9620
8.3416 -4.4818 -2.0016 0.9620
9.2305 -2.1135 -2.0016 0.9620
9.3822 -1.2818 -2.0016 0.9620
9.4591 -0.4398 -2.0016 0.9620
9.4607 0.4056 -2.0016 0.9620
8.7215 3.6884 -2.0016 0.9620
8.3577 4.4516 -2.0016 0.9620
6.8809 6.5055 -2.0016 0.9620
4.5819 7.5493 -1.8667 0.9645
1.6371 8.5938 -1.8492 0.9649
0.0842 8.7480 -1.8492 0.9649
-1.4715 8.6237 -1.8492 0.9649
-2.2348 8.4581 -1.8492 0.9649
-6.1289 7.2048 -1.9994 0.9621
-7.3195 6.0077 -2.0016 0.9620
-7.8262 5.3309 -2.0016 0.9620
-9.1963 2.2575 -2.0016 0.9620
-9.3610 1.4282 -2.0016 0.9620
-9.4658 -0.2577 -2.0016 0.9620
-9.0598 -2.7546 -2.0016 0.9620
-8.7780 -3.5517 -2.0016 0.9620
-8.0073 -5.0548 -2.0016 0.9620
-6.3833 -6.9944 -2.0016 0.9620
-5.7340 -7.5358 -2.0016 0.9620
-3.5344 -8.7850 -2.0016 0.9620
-2.7367 -9.0652 -2.0016 0.9620
-1.9172 -9.2732 -2.0016 0.9620
2.2756 -9.1918 -2.0016 0.9620
3.0864 -8.9522 -2.0016 0.9620
4.6279 -8.2614 -2.0016 0.9620
6.0222 -7.3077 -2.0016 0.9620
7.2248 -6.1214 -2.0016 0.9620
7.7420 -5.4526 -2.0016 0.9620
8.5876 -3.9902 -2.0016 0.9620
8.9093 -3.2084 -2.0016 0.9620
9.3376 -1.5743 -2.0016 0.9620
9.4408 -0.7352 -2.0016 0.9620
9.4687 0.1098 -2.0016 0.9620
9.1018 2.6127 -2.0016 0.9620
8.4927 4.1883 -2.0016 0.9620
8.0853 4.9291 -2.0016 0.9620
7.0809 6.2873 -2.0016 0.9620
6.4919 6.8938 -2.0016 0.9620
4.9069 7.5428 -1.9021 0.9639
4.0974 7.7295 -1.8492 0.9649
3.3917 8.0641 -1.8492 0.9649
1.9049 8.5385 -1.8492 0.9649
1.1357 8.6743 -1.8492 0.9649
-1.2013 8.6655 -1.8492 0.9649
-1.9694 8.5238 -1.8492 0.9649
-2.7218 8.3142 -1.8492 0.9649
-5.8919 7.3817 -1.9964 0.9621
-6.5438 6.8445 -2.0016 0.9620
-7.1282 6.2335 -2.0016 0.9620
-8.1224 4.8678 -2.0016 0.9620
-8.5242 4.1239 -2.0016 0.9620
-8.8580 3.3472 -2.0016 0.9620
-9.3254 -1.6449 -2.0016 0.9620
-9.1415 -2.4701 -2.0016 0.9620
-8.8847 -3.2757 -2.0016 0.9620
-8.5572 -4.0551 -2.0016 0.9620
-8.1613 -4.8022 -2.0016 0.9620
-7.7005 -5.5110 -2.0016 0.9620
-7.1783 -6.1758 -2.0016 0.9620
-6.5988 -6.7915 -2.0016 0.9620
-5.9667 -7.3530 -2.0016 0.9620
-5.2871 -7.8559 -2.0016 0.9620
-4.5653 -8.2962 -2.0016 0.9620
-3.8071 -8.6703 -2.0016 0.9620
-2.2061 -9.2088 -2.0016 0.9620
-1.3759 -9.3688 -2.0016 0.9620
-0.5347 -9.4542 -2.0016 0.9620
1.9873 -9.2585 -2.0016 0.9620
3.6007 -8.7580 -2.0016 0.9620
4.3675 -8.4020 -2.0016 0.9620
6.4361 -6.9459 -2.0016 0.9620
7.0299 -6.3442 -2.0016 0.9620
7.5678 -5.6918 -2.0016 0.9620
8.0453 -4.9942 -2.0016 0.9620
8.4587 -4.2566 -2.0016 0.9620
8.8046 -3.4852 -2.0016 0.9620
9.0804 -2.6860 -2.0016 0.9620
9.2838 -1.8654 -2.0016 0.9620
9.4132 -1.0298 -2.0016 0.9620
9.4464 0.6591 -2.0016 0.9620
8.2354 4.6740 -2.0016 0.9620
4.3370 7.5977 -1.8492 0.9649
2.9180 8.2474 -1.8492 0.9649
1.4062 8.6346 -1.8492 0.9649
0.6305 8.7256 -1.8492 0.9649
-1.7021 8.5812 -1.8492 0.9649
-3.1997 8.1422 -1.8492 0.9649
-4.6595 7.5478 -1.8750 0.9644
-6.3267 7.0456 -2.0016 0.9620
-7.4779 5.8094 -2.0016 0.9620
-7.9663 5.1192 -2.0016 0.9620
-8.3911 4.3883 -2.0016 0.9620
-9.2535 2.0102 -2.0016 0.9620
-9.3959 1.1768 -2.0016 0.9620
-9.4634 0.3341 -2.0016 0.9620
-8.9828 -2.9964 -2.0016 0.9620
-8.6797 -3.7857 -2.0016 0.9620
-8.3074 -4.5448 -2.0016 0.9620
-7.8689 -5.2677 -2.0016 0.9620
-6.8078 -6.5820 -2.0016 0.9620
-5.5300 -7.6868 -2.0016 0.9620
-4.8223 -8.1494 -2.0016 0.9620
-4.0762 -8.5471 -2.0016 0.9620
-3.2976 -8.8766 -2.0016 0.9620
-1.6680 -9.3213 -2.0016 0.9620
0.8593 -9.4303 -2.0016 0.9620
1.6970 -9.3160 -2.0016 0.9620
3.3253 -8.8663 -2.0016 0.9620
4.1028 -8.5344 -2.0016 0.9620
6.2159 -7.1436 -2.0016 0.9620
7.3862 -5.9255 -2.0016 0.9620
8.3216 -4.5189 -2.0016 0.9620
9.3922 1.2061 -2.0016 0.9620
8.7378 3.6496 -2.0016 0.9620
8.3774 4.4144 -2.0016 0.9620
7.9503 5.1440 -2.0016 0.9620
7.4598 5.8327 -2.0016 0.9620
6.9098 6.4748 -2.0016 0.9620
5.5962 7.5278 -1.9827 0.9624
3.8888 7.8365 -1.8492 0.9649
3.1743 8.1521 -1.8492 0.9649
2.4346 8.4028 -1.8492 0.9649
0.9028 8.7017 -1.8492 0.9649
0.1231 8.7475 -1.8492 0.9649
-2.1972 8.4680 -1.8492 0.9649
-2.9437 8.2382 -1.8492 0.9649
-6.0955 7.2304 -1.9990 0.9621
-6.7249 6.6666 -2.0016 0.9620
-7.2927 6.0402 -2.0016 0.9620
-7.8024 5.3657 -2.0016 0.9620
-8.6316 3.8940 -2.0016 0.9620
-8.9446 3.1086 -2.0016 0.9620
-9.1862 2.2984 -2.0016 0.9620
-9.4484 0.6296 -2.0016 0.9620
-9.4099 -1.0592 -2.0016 0.9620
-9.2779 -1.8942 -2.0016 0.9620
-8.0297 -5.0192 -2.0016 0.9620
-7.0101 -6.3660 -2.0016 0.9620
-6.4144 -6.9659 -2.0016 0.9620
-5.7675 -7.5103 -2.0016 0.9620
-5.0746 -7.9948 -2.0016 0.9620
-4.3413 -8.4155 -2.0016 0.9620
1.4051 -9.3645 -2.0016 0.9620
3.8341 -8.6584 -2.0016 0.9620
5.3115 -7.8394 -2.0016 0.9620
5.9896 -7.3344 -2.0016 0.9620
6.6199 -6.7709 -2.0016 0.9620
7.7176 -5.4870 -2.0016 0.9620
8.8949 -3.2480 -2.0016 0.9620
9.3305 -1.6159 -2.0016 0.9620
9.4253 0.9120 -2.0016 0.9620
9.1133 2.5721 -2.0016 0.9620
8.8476 3.3748 -2.0016 0.9620
8.5113 4.1505 -2.0016 0.9620
8.1072 4.8931 -2.0016 0.9620
7.6384 5.5967 -2.0016 0.9620
7.1088 6.2557 -2.0016 0.9620
6.5225 6.8648 -2.0016 0.9620
4.9541 7.5418 -1.9074 0.9638
4.1318 7.7112 -1.8492 0.9649
3.4275 8.0490 -1.8492 0.9649
1.1743 8.6692 -1.8492 0.9649
-0.3847 8.7399 -1.8492 0.9649
-1.1627 8.6708 -1.8492 0.9649
-1.9315 8.5325 -1.8492 0.9649
-3.4168 8.0536 -1.8492 0.9649
-4.1215 7.7167 -1.8492 0.9649
-5.8578 7.4063 -1.9960 0.9621
-6.5133 6.8736 -2.0016 0.9620
-8.1006 4.9039 -2.0016 0.9620
-8.5058 4.1618 -2.0016 0.9620
-8.5751 -4.0169 -2.0016 0.9620
-7.7249 -5.4766 -2.0016 0.9620
-6.6289 -6.7621 -2.0016 0.9620
-5.9994 -7.3264 -2.0016 0.9620
-4.6022 -8.2758 -2.0016 0.9620
-3.0585 -8.9618 -2.0016 0.9620
-2.2470 -9.1989 -2.0016 0.9620
0.2685 -9.4655 -2.0016 0.9620
3.5617 -8.7740 -2.0016 0.9620
5.0640 -8.0015 -2.0016 0.9620
5.7575 -7.5180 -2.0016 0.9620
7.5424 -5.7254 -2.0016 0.9620
8.0230 -5.0299 -2.0016 0.9620
8.7891 -3.5243 -2.0016 0.9620
9.0684 -2.7264 -2.0016 0.9620
9.4085 -1.0717 -2.0016 0.9620
9.4492 0.6170 -2.0016 0.9620
8.6368 3.8825 -2.0016 0.9620
8.2561 4.6373 -2.0016 0.9620
7.8096 5.3553 -2.0016 0.9620
7.3008 6.0305 -2.0016 0.9620
6.7338 6.6576 -2.0016 0.9620
6.1055 7.2228 -1.9991 0.9621
5.2937 7.5345 -1.9464 0.9631
4.3707 7.5783 -1.8492 0.9649
-0.8912 8.7029 -1.8492 0.9649
-1.6639 8.5887 -1.8492 0.9649
-2.4233 8.4060 -1.8492 0.9649
-3.1634 8.1564 -1.8492 0.9649
-3.8783 7.8417 -1.8492 0.9649
-4.6138 7.5487 -1.8701 0.9645
-5.5808 7.5282 -1.9809 0.9624
-6.2953 7.0737 -2.0016 0.9620
-6.9012 6.4840 -2.0016 0.9620
-7.9434 5.1546 -2.0016 0.9620
-8.3715 4.4256 -2.0016 0.9620
-8.7329 3.6613 -2.0016 0.9620
-9.0247 2.8677 -2.0016 0.9620
-9.2445 2.0513 -2.0016 0.9620
-8.9960 -2.9564 -2.0016 0.9620
-8.6964 -3.7471 -2.0016 0.9620
-8.3276 -4.5078 -2.0016 0.9620
-7.3941 -5.9157 -2.0016 0.9620
-6.8370 -6.5516 -2.0016 0.9620
-5.5641 -7.6622 -2.0016 0.9620
-4.8585 -8.1279 -2.0016 0.9620
-4.1142 -8.5288 -2.0016 0.9620
-3.3371 -8.8618 -2.0016 0.9620
-0.0274 -9.4693 -2.0016 0.9620
2.4805 -9.1387 -2.0016 0.9620
4.8114 -8.1559 -2.0016 0.9620
5.5198 -7.6942 -2.0016 0.9620
6.7990 -6.5910 -2.0016 0.9620
7.3598 -5.9583 -2.0016 0.9620
8.6746 -3.7973 -2.0016 0.9620
8.9787 -3.0084 -2.0016 0.9620
9.2113 -2.1955 -2.0016 0.9620
9.3704 -1.3652 -2.0016 0.9620
9.4548 -0.5240 -2.0016 0.9620
9.4639 0.3215 -2.0016 0.9620
9.0411 2.8155 -2.0016 0.9620
8.3970 4.3771 -2.0016 0.9620
7.4857 5.7994 -2.0016 0.9620
5.6475 7.5266 -1.9890 0.9623
4.6732 7.5475 -1.8764 0.9644
3.9236 7.8191 -1.8492 0.9649
2.4719 8.3919 -1.8492 0.9649
0.9415 8.6975 -1.8492 0.9649
-1.3947 8.6365 -1.8492 0.9649
-2.1595 8.4777 -1.8492 0.9649
-4.3268 7.6034 -1.8492 0.9649
-8.2291 4.6850 -2.0016 0.9620
-9.4455 0.6717 -2.0016 0.9620
-9.4145 -1.0173 -2.0016 0.9620
-9.2863 -1.8530 -2.0016 0.9620
-8.8093 -3.4735 -2.0016 0.9620
-8.4644 -4.2453 -2.0016 0.9620
-8.0520 -4.9834 -2.0016 0.9620
-7.5754 -5.6817 -2.0016 0.9620
-5.1102 -7.9721 -2.0016 0.9620
-4.3787 -8.3961 -2.0016 0.9620
-3.6124 -8.7532 -2.0016 0.9620
-2.8173 -9.0405 -2.0016 0.9620
-1.1661 -9.3973 -2.0016 0.9620
-0.3233 -9.4638 -2.0016 0.9620
0.5221 -9.4549 -2.0016 0.9620
1.3634 -9.3707 -2.0016 0.9620
2.1938 -9.2117 -2.0016 0.9620
3.0067 -8.9793 -2.0016 0.9620
3.7956 -8.6754 -2.0016 0.9620
4.5543 -8.3022 -2.0016 0.9620
7.1700 -6.1854 -2.0016 0.9620
9.1382 -2.4823 -2.0016 0.9620
9.4338 -0.8192 -2.0016 0.9620
9.4293 0.8700 -2.0016 0.9620
9.3141 1.7076 -2.0016 0.9620
9.1247 2.5316 -2.0016 0.9620
8.8625 3.3354 -2.0016 0.9620
8.1289 4.8570 -2.0016 0.9620
4.1661 7.6927 -1.8492 0.9649
2.7329 8.3105 -1.8492 0.9649
1.2129 8.6639 -1.8492 0.9649
-1.8935 8.5410 -1.8492 0.9649
-3.3809 8.0687 -1.8492 0.9649
-4.0871 7.7349 -1.8492 0.9649
-6.4826 6.9025 -2.0016 0.9620
-7.0725 6.2967 -2.0016 0.9620
-8.0787 4.9399 -2.0016 0.9620
-8.4871 4.1996 -2.0016 0.9620
-8.8279 3.4259 -2.0016 0.9620
-9.4417 -0.7226 -2.0016 0.9620
-9.3396 -1.5619 -2.0016 0.9620
-8.9135 -3.1965 -2.0016 0.9620
-8.5929 -3.9787 -2.0016 0.9620
-8.2037 -4.7294 -2.0016 0.9620
-7.7492 -5.4422 -2.0016 0.9620
-7.2329 -6.1117 -2.0016 0.9620
-6.6589 -6.7325 -2.0016 0.9620
-6.0319 -7.2996 -2.0016 0.9620
-5.3568 -7.8085 -2.0016 0.9620
-4.6389 -8.2552 -2.0016 0.9620
-3.8842 -8.6361 -2.0016 0.9620
-3.0984 -8.9481 -2.0016 0.9620
-1.4592 -9.3562 -2.0016 0.9620
2.7246 -9.0689 -2.0016 0.9620
3.5226 -8.7897 -2.0016 0.9620
7.5169 -5.7589 -2.0016 0.9620
8.7733 -3.5634 -2.0016 0.9620
9.0561 -2.7667 -2.0016 0.9620
9.4519 0.5749 -2.0016 0.9620
9.3629 1.4157 -2.0016 0.9620
9.1993 2.2452 -2.0016 0.9620
8.9624 3.0568 -2.0016 0.9620
8.2767 4.6006 -2.0016 0.9620
7.3276 5.9979 -2.0016 0.9620
6.1390 7.1971 -1.9996 0.9621
5.3431 7.5334 -1.9523 0.9629
4.4044 7.5587 -1.8492 0.9649
2.2461 8.4551 -1.8492 0.9649
1.4830 8.6217 -1.8492 0.9649
-0.0725 8.7481 -1.8492 0.9649
-0.8525 8.7067 -1.8492 0.9649
-2.3859 8.4167 -1.8492 0.9649
-3.1271 8.1704 -1.8492 0.9649
-3.8434 7.8589 -1.8492 0.9649
-6.2625 7.1002 -2.0012 0.9620
-6.8723 6.5146 -2.0016 0.9620
-7.9204 5.1899 -2.0016 0.9620
-8.3518 4.4628 -2.0016 0.9620
-8.7165 3.7001 -2.0016 0.9620
-9.0118 2.9078 -2.0016 0.9620
-9.2353 2.0925 -2.0016 0.9620
-9.4601 0.4182 -2.0016 0.9620
-9.3839 -1.2692 -2.0016 0.9620
-9.2333 -2.1012 -2.0016 0.9620
-8.7130 -3.7083 -2.0016 0.9620
-8.3475 -4.4707 -2.0016 0.9620
-7.4204 -5.8828 -2.0016 0.9620
-6.8661 -6.5211 -2.0016 0.9620
-6.2571 -7.1075 -2.0016 0.9620
-4.8947 -8.1062 -2.0016 0.9620
-3.3765 -8.8469 -2.0016 0.9620
-2.5739 -9.1128 -2.0016 0.9620
-1.7509 -9.3061 -2.0016 0.9620
-0.0695 -9.4691 -2.0016 0.9620
0.7753 -9.4375 -2.0016 0.9620
1.6140 -9.3308 -2.0016 0.9620
3.2462 -8.8955 -2.0016 0.9620
4.7751 -8.1772 -2.0016 0.9620
7.3332 -5.9910 -2.0016 0.9620
8.6577 -3.8358 -2.0016 0.9620
9.2014 -2.2365 -2.0016 0.9620
9.4652 0.2793 -2.0016 0.9620
9.4026 1.1225 -2.0016 0.9620
8.4164 4.3397 -2.0016 0.9620
7.9958 5.0731 -2.0016 0.9620
6.3674 7.0089 -2.0016 0.9620
5.6953 7.5205 -1.9941 0.9622
4.7192 7.5466 -1.8814 0.9643
3.9584 7.8016 -1.8492 0.9649
3.2468 8.1236 -1.8492 0.9649
2.5092 8.3808 -1.8492 0.9649
0.9802 8.6933 -1.8492 0.9649
0.2009 8.7461 -1.8492 0.9649
-0.5800 8.7291 -1.8492 0.9649
-1.3562 8.6426 -1.8492 0.9649
-2.1217 8.4872 -1.8492 0.9649
-2.8703 8.2641 -1.8492 0.9649
-4.2930 7.6226 -1.8492 0.9649
-5.1810 7.5370 -1.9333 0.9633
-6.0283 7.2812 -1.9982 0.9621
-6.6653 6.7262 -2.0016 0.9620
-7.2387 6.1049 -2.0016 0.9620
-7.7544 5.4349 -2.0016 0.9620
-8.2082 4.7216 -2.0016 0.9620
-8.5966 3.9707 -2.0016 0.9620
-9.1654 2.3800 -2.0016 0.9620
-9.4424 0.7137 -2.0016 0.9620
-9.4190 -0.9754 -2.0016 0.9620
-9.2944 -1.8116 -2.0016 0.9620
-9.0958 -2.6334 -2.0016 0.9620
-8.4832 -4.2076 -2.0016 0.9620
-7.6006 -5.6480 -2.0016 0.9620
-6.4761 -6.9085 -2.0016 0.9620
-5.8341 -7.4587 -2.0016 0.9620
-5.1456 -7.9493 -2.0016 0.9620
-4.4161 -8.3766 -2.0016 0.9620
-3.6513 -8.7371 -2.0016 0.9620
-2.0408 -9.2468 -2.0016 0.9620
-1.2079 -9.3920 -2.0016 0.9620
0.4801 -9.4572 -2.0016 0.9620
1.3217 -9.3766 -2.0016 0.9620
2.1527 -9.2214 -2.0016 0.9620
2.9667 -8.9926 -2.0016 0.9620
3.7569 -8.6922 -2.0016 0.9620
4.5173 -8.3224 -2.0016 0.9620
6.5594 -6.8295 -2.0016 0.9620
8.1334 -4.8493 -2.0016 0.9620
9.1271 -2.5230 -2.0016 0.9620
9.3216 1.6662 -2.0016 0.9620
8.5479 4.0746 -2.0016 0.9620
8.1504 4.8207 -2.0016 0.9620
5.0495 7.5398 -1.9181 0.9636
3.4990 8.0182 -1.8492 0.9649
0.4742 8.7355 -1.8492 0.9649
-1.0855 8.6808 -1.8492 0.9649
-3.3450 8.0836 -1.8492 0.9649
-4.0527 7.7530 -1.8492 0.9649
-7.0444 6.3281 -2.0016 0.9620
-8.0567 4.9758 -2.0016 0.9620
-8.4684 4.2373 -2.0016 0.9620
-9.2880 1.8442 -2.0016 0.9620
-9.4155 1.0084 -2.0016 0.9620
-9.4679 0.1645 -2.0016 0.9620
-8.6105 -3.9405 -2.0016 0.9620
-8.2247 -4.6928 -2.0016 0.9620
-7.7734 -5.4077 -2.0016 0.9620
-7.2601 -6.0795 -2.0016 0.9620
-6.6889 -6.7028 -2.0016 0.9620
-5.3915 -7.7846 -2.0016 0.9620
-4.6756 -8.2345 -2.0016 0.9620
-3.1382 -8.9342 -2.0016 0.9620
-1.5008 -9.3497 -2.0016 0.9620
1.0280 -9.4134 -2.0016 0.9620
3.4835 -8.8053 -2.0016 0.9620
5.6903 -7.5689 -2.0016 0.9620
6.9447 -6.4374 -2.0016 0.9620
7.9779 -5.1011 -2.0016 0.9620
8.4011 -4.3692 -2.0016 0.9620
8.7573 -3.6024 -2.0016 0.9620
9.0437 -2.8070 -2.0016 0.9620
9.3986 -1.1554 -2.0016 0.9620
9.4642 -0.3125 -2.0016 0.9620
9.4543 0.5329 -2.0016 0.9620
9.3691 1.3740 -2.0016 0.9620
9.2092 2.2042 -2.0016 0.9620
8.6710 3.8055 -2.0016 0.9620
7.3542 5.9653 -2.0016 0.9620
5.3929 7.5324 -1.9582 0.9628
4.4473 7.5549 -1.8531 0.9648
3.7479 7.9049 -1.8492 0.9649
2.2837 8.4450 -1.8492 0.9649
1.5213 8.6151 -1.8492 0.9649
-0.0335 8.7483 -1.8492 0.9649
-0.8137 8.7104 -1.8492 0.9649
-1.5874 8.6031 -1.8492 0.9649
-2.3485 8.4273 -1.8492 0.9649
-3.8084 7.8759 -1.8492 0.9649
-6.8432 6.5451 -2.0016 0.9620
-7.3997 5.9087 -2.0016 0.9620
-8.3318 4.4999 -2.0016 0.9620
-9.2259 2.1335 -2.0016 0.9620
-9.4581 0.4604 -2.0016 0.9620
-9.4615 -0.3851 -2.0016 0.9620
-9.3894 -1.2275 -2.0016 0.9620
-8.7294 -3.6695 -2.0016 0.9620
-7.4465 -5.8497 -2.0016 0.9620
-6.8950 -6.4905 -2.0016 0.9620
-4.1899 -8.4919 -2.0016 0.9620
-3.4158 -8.8318 -2.0016 0.9620
-2.6144 -9.1013 -2.0016 0.9620
-0.9558 -9.4210 -2.0016 0.9620
-0.1117 -9.4687 -2.0016 0.9620
0.7334 -9.4409 -2.0016 0.9620
2.3991 -9.1604 -2.0016 0.9620
3.2066 -8.9099 -2.0016 0.9620
-8.2119 -2.2582 -2.0016 0.9656
-7.9777 -2.9817 -2.0016 0.9656
-7.3210 -4.3517 -2.0016 0.9656
-5.9077 -6.1346 -2.0016 0.9656
-5.3370 -6.6371 -2.0016 0.9656
-4.7237 -7.0867 -2.0016 0.9656
-4.0728 -7.4798 -2.0016 0.9656
-2.6790 -8.0844 -2.0016 0.9656
-1.9473 -8.2911 -2.0016 0.9656
-1.2000 -8.4318 -2.0016 0.9656
0.3173 -8.5108 -2.0016 0.9656
1.0751 -8.4486 -2.0016 0.9656
1.8244 -8.3190 -2.0016 0.9656
3.2735 -7.8625 -2.0016 0.9656
4.6184 -7.1558 -2.0016 0.9656
5.8163 -6.2213 -2.0016 0.9656
6.8292 -5.0889 -2.0016 0.9656
7.9328 -3.0993 -2.0016 0.9656
8.4702 -0.8886 -2.0016 0.9656
8.5157 -0.1295 -2.0016 0.9656
8.4033 1.3856 -2.0016 0.9656
8.2462 2.1296 -2.0016 0.9656
8.0234 2.8566 -2.0016 0.9656
7.3881 4.2368 -2.0016 0.9656
6.9808 4.8788 -2.0016 0.9656
4.1779 7.3952 -1.9962 0.9657
3.4096 7.5350 -1.9438 0.9666
1.9185 7.6308 -1.8492 0.9682
-0.1702 7.8665 -1.8492 0.9682
-2.2511 7.5552 -1.8528 0.9681
-3.0025 7.5417 -1.9078 0.9672
-3.8069 7.5278 -1.9826 0.9659
-4.5006 7.2184 -1.9992 0.9657
-5.7184 6.3115 -2.0016 0.9656
-6.2586 5.7763 -2.0016 0.9656
-6.7488 5.1950 -2.0016 0.9656
-7.8834 3.2229 -2.0016 0.9656
-8.4553 1.0208 -2.0016 0.9656
-8.5127 0.2626 -2.0016 0.9656
-8.5022 -0.4977 -2.0016 0.9656
-8.4239 -1.2541 -2.0016 0.9656
-8.0670 -2.7309 -2.0016 0.9656
-7.4534 -4.1208 -2.0016 0.9656
-7.0562 -4.7692 -2.0016 0.9656
-6.6027 -5.3795 -2.0016 0.9656
-6.0965 -5.9470 -2.0016 0.9656
-4.9429 -6.9356 -2.0016 0.9656
-4.3046 -7.3488 -2.0016 0.9656
-3.6319 -7.7035 -2.0016 0.9656
-2.9303 -7.9967 -2.0016 0.9656
1.5636 -8.3720 -2.0016 0.9656
3.0262 -7.9610 -2.0016 0.9656
5.0258 -6.8757 -2.0016 0.9656
5.6191 -6.4000 -2.0016 0.9656
7.1130 -4.6841 -2.0016 0.9656
7.8320 -3.3457 -2.0016 0.9656
8.0993 -2.6338 -2.0016 0.9656
8.5075 -0.3956 -2.0016 0.9656
8.4425 1.1223 -2.0016 0.9656
8.3087 1.8709 -2.0016 0.9656
7.5169 4.0038 -2.0016 0.9656
5.6422 6.3797 -2.0016 0.9656
5.0507 6.8575 -2.0016 0.9656
4.4117 7.2688 -1.9984 0.9657
2.8987 7.5433 -1.8992 0.9673
2.1560 7.5671 -1.8492 0.9682
1.4725 7.7293 -1.8492 0.9682
0.7772 7.8298 -1.8492 0.9682
-0.6264 7.8433 -1.8492 0.9682
-1.3235 7.7562 -1.8492 0.9682
-2.0100 7.6072 -1.8492 0.9682
-2.7342 7.5457 -1.8862 0.9676
-4.9178 6.9534 -2.0016 0.9656
-7.0389 4.7947 -2.0016 0.9656
-7.7788 3.4677 -2.0016 0.9656
-8.1484 -2.4775 -2.0016 0.9656
-7.8950 -3.1944 -2.0016 0.9656
-7.2018 -4.5463 -2.0016 0.9656
-5.7412 -6.2908 -2.0016 0.9656
-5.1572 -6.7777 -2.0016 0.9656
-3.1788 -7.9013 -2.0016 0.9656
-2.4614 -8.1533 -2.0016 0.9656
-1.7243 -8.3404 -2.0016 0.9656
-0.2150 -8.5140 -2.0016 0.9656
0.5453 -8.4993 -2.0016 0.9656
4.8085 -7.0294 -2.0016 0.9656
5.4163 -6.5725 -2.0016 0.9656
6.4980 -5.5056 -2.0016 0.9656
8.0130 -2.8856 -2.0016 0.9656
8.3982 -1.4160 -2.0016 0.9656
8.4910 -0.6612 -2.0016 0.9656
8.1861 2.3498 -2.0016 0.9656
7.6384 3.7670 -2.0016 0.9656
7.2719 4.4332 -2.0016 0.9656
6.3685 5.6548 -2.0016 0.9656
5.2625 6.6964 -2.0016 0.9656
3.1708 7.5390 -1.9222 0.9670
2.4086 7.5501 -1.8625 0.9680
1.7133 7.6795 -1.8492 0.9682
1.0215 7.8017 -1.8492 0.9682
0.3215 7.8617 -1.8492 0.9682
-1.0804 7.7937 -1.8492 0.9682
-1.7713 7.6663 -1.8492 0.9682
-6.4111 5.6064 -2.0016 0.9656
-6.8856 5.0123 -2.0016 0.9656
-7.9669 3.0104 -2.0016 0.9656
-8.2037 2.2879 -2.0016 0.9656
-8.4858 -0.7254 -2.0016 0.9656
-8.2219 -2.2216 -2.0016 0.9656
-7.3403 -4.3191 -2.0016 0.9656
-5.9350 -6.1083 -2.0016 0.9656
1.7874 -8.3271 -2.0016 0.9656
2.5230 -8.1344 -2.0016 0.9656
3.2385 -7.8770 -2.0016 0.9656
3.9281 -7.5567 -2.0016 0.9656
4.5865 -7.1762 -2.0016 0.9656
7.2360 -4.4917 -2.0016 0.9656
7.6078 -3.8284 -2.0016 0.9656
7.9189 -3.1346 -2.0016 0.9656
8.4662 -0.9262 -2.0016 0.9656
8.5151 -0.1674 -2.0016 0.9656
8.2556 2.0929 -2.0016 0.9656
8.0360 2.8209 -2.0016 0.9656
7.7524 3.5264 -2.0016 0.9656
7.0024 4.8477 -2.0016 0.9656
5.4692 6.5286 -2.0016 0.9656
4.2114 7.3776 -1.9965 0.9657
3.4498 7.5343 -1.9475 0.9665
2.6701 7.5466 -1.8814 0.9676
1.9524 7.6222 -1.8492 0.9682
1.2648 7.7660 -1.8492 0.9682
-0.1352 7.8671 -1.8492 0.9682
-1.5309 7.7179 -1.8492 0.9682
-2.2151 7.5571 -1.8508 0.9682
-2.9640 7.5423 -1.9046 0.9672
-5.1024 6.8191 -2.0016 0.9656
-8.3226 1.8080 -2.0016 0.9656
-8.5043 -0.4599 -2.0016 0.9656
-8.0791 -2.6950 -2.0016 0.9656
-7.4717 -4.0876 -2.0016 0.9656
-6.6265 -5.3501 -2.0016 0.9656
-6.1229 -5.9198 -2.0016 0.9656
-4.3372 -7.3296 -2.0016 0.9656
-3.6662 -7.6872 -2.0016 0.9656
-2.2420 -8.2163 -2.0016 0.9656
0.7729 -8.4816 -2.0016 0.9656
2.9907 -7.9743 -2.0016 0.9656
4.3600 -7.3161 -2.0016 0.9656
4.9952 -6.8980 -2.0016 0.9656
5.5906 -6.4250 -2.0016 0.9656
6.1414 -5.9007 -2.0016 0.9656
6.6432 -5.3294 -2.0016 0.9656
7.0921 -4.7157 -2.0016 0.9656
8.4331 -1.1904 -2.0016 0.9656
8.3169 1.8339 -2.0016 0.9656
7.8588 3.2825 -2.0016 0.9656
7.5347 3.9703 -2.0016 0.9656
7.1505 4.6266 -2.0016 0.9656
6.2147 5.8234 -2.0016 0.9656
5.0811 6.8350 -2.0016 0.9656
3.7363 7.5292 -1.9754 0.9661
1.5068 7.7227 -1.8492 0.9682
0.8120 7.8263 -1.8492 0.9682
0.1107 7.8675 -1.8492 0.9682
-1.9761 7.6161 -1.8492 0.9682
-3.4780 7.5338 -1.9502 0.9665
-4.2348 7.3653 -1.9967 0.9657
-6.5591 5.4326 -2.0016 0.9656
-7.7633 3.5022 -2.0016 0.9656
-8.2621 2.0672 -2.0016 0.9656
-8.4135 1.3220 -2.0016 0.9656
-8.4979 0.5663 -2.0016 0.9656
-8.5145 -0.1939 -2.0016 0.9656
-8.3446 -1.7037 -2.0016 0.9656
-8.1594 -2.4412 -2.0016 0.9656
-7.5958 -3.8521 -2.0016 0.9656
-6.3049 -5.7256 -2.0016 0.9656
-5.7691 -6.2651 -2.0016 0.9656
-5.1873 -6.7547 -2.0016 0.9656
-3.9046 -7.5689 -2.0016 0.9656
-3.2139 -7.8870 -2.0016 0.9656
-1.0112 -8.4565 -2.0016 0.9656
-0.2529 -8.5130 -2.0016 0.9656
2.7401 -8.0639 -2.0016 0.9656
3.4484 -7.7874 -2.0016 0.9656
4.7772 -7.0507 -2.0016 0.9656
5.3871 -6.5965 -2.0016 0.9656
7.3538 -4.2962 -2.0016 0.9656
7.7076 -3.6231 -2.0016 0.9656
8.0001 -2.9212 -2.0016 0.9656
8.4880 -0.6990 -2.0016 0.9656
8.5165 0.0609 -2.0016 0.9656
8.4771 0.8203 -2.0016 0.9656
8.1965 2.3134 -2.0016 0.9656
7.9575 3.0353 -2.0016 0.9656
6.8700 5.0337 -2.0016 0.9656
6.3936 5.6264 -2.0016 0.9656
5.2922 6.6729 -2.0016 0.9656
4.0086 7.4813 -1.9948 0.9657
2.4456 7.5496 -1.8651 0.9679
1.7474 7.6718 -1.8492 0.9682
1.0562 7.7971 -1.8492 0.9682
0.3565 7.8602 -1.8492 0.9682
-1.0458 7.7985 -1.8492 0.9682
-1.7372 7.6741 -1.8492 0.9682
-2.4345 7.5497 -1.8643 0.9679
-6.3861 5.6349 -2.0016 0.9656
-7.6501 3.7431 -2.0016 0.9656
-8.1934 2.3243 -2.0016 0.9656
-8.3681 1.5843 -2.0016 0.9656
