ply
format ascii 1.0
element vertex 1546
property float32 x
property float32 y
property float32 z
property float32 I
end_header
3.6535 11.6534 -1.1725 0.9521
2.5391 11.6557 -1.1452 0.9532
0.4179 11.6476 -1.1189 0.9542
-1.6431 11.4309 -1.1087 0.9547
-2.6863 11.3663 -1.1213 0.9542
-5.0630 11.6266 -1.2175 0.9503
-9.2188 11.4317 -1.4099 0.9427
-10.7525 11.1343 -1.4860 0.9397
-13.3939 11.5947 -1.7008 0.9313
-16.3009 9.6586 -1.8191 0.9267
-17.0871 8.1611 -1.8180 0.9267
-11.9409 -14.8670 -1.8307 0.9262
-10.5817 -15.8945 -1.8332 0.9261
-9.1349 -16.7992 -1.8358 0.9260
-7.6115 -17.5733 -1.8386 0.9259
-6.0231 -18.2102 -1.8414 0.9258
-2.7002 -19.0510 -1.8473 0.9256
17.7636 8.1883 -1.8779 0.9244
14.9170 12.5611 -1.8722 0.9246
12.4455 15.0089 -1.8719 0.9246
1.8378 11.6530 -1.1326 0.9537
-0.2583 11.6288 -1.1167 0.9543
-4.6372 11.6282 -1.2019 0.9509
-8.7179 11.5298 -1.3877 0.9436
-12.5808 11.5978 -1.6427 0.9336
-15.9951 10.1655 -1.8195 0.9267
-17.5263 7.1534 -1.8174 0.9268
-12.4996 -12.2071 -1.6774 0.9322
-12.3937 -14.4801 -1.8298 0.9263
-11.0677 -15.5487 -1.8323 0.9262
-9.6503 -16.4972 -1.8349 0.9261
-6.5854 -18.0034 -1.8404 0.9259
-4.9610 -18.5480 -1.8433 0.9257
-3.2921 -18.9467 -1.8462 0.9256
18.0768 7.6574 -1.8847 0.9241
17.2487 9.2003 -1.8768 0.9245
16.3436 10.6918 -1.8750 0.9245
14.1519 13.3953 -1.8708 0.9247
8.6950 11.8202 -1.4088 0.9427
7.2352 11.9366 -1.3401 0.9455
5.7171 11.6679 -1.2474 0.9491
0.1052 11.6464 -1.1182 0.9543
-1.9542 11.4119 -1.1115 0.9545
-3.0050 11.3461 -1.1268 0.9539
-5.4379 11.6251 -1.2321 0.9497
-15.6738 10.6629 -1.8200 0.9267
-16.5509 9.2160 -1.8187 0.9267
-17.2972 7.6987 -1.8177 0.9267
-18.7716 6.4181 -1.9046 0.9234
-14.0217 -12.8628 -1.8268 0.9264
-12.8342 -14.0795 -1.8290 0.9263
-11.5424 -15.1880 -1.8314 0.9262
-8.2261 -13.1052 -1.4855 0.9397
-3.8802 -18.8241 -1.8452 0.9257
17.5331 8.6596 -1.8774 0.9244
16.6754 10.1796 -1.8756 0.9245
13.3485 14.1920 -1.8705 0.9247
8.3812 12.9003 -1.4769 0.9401
4.8979 11.6648 -1.2146 0.9504
2.5931 11.6559 -1.1464 0.9531
-0.5698 11.6115 -1.1161 0.9544
-3.6646 11.1713 -1.1287 0.9539
-5.0022 11.6268 -1.2152 0.9504
-6.2829 11.6219 -1.2684 0.9483
-10.6794 11.1568 -1.4827 0.9398
-15.3373 11.1504 -1.8205 0.9266
-16.2587 9.7307 -1.8191 0.9267
-17.7096 6.6798 -1.8171 0.9268
-14.4107 -12.4135 -1.8260 0.9264
-13.2619 -13.6657 -1.8282 0.9263
-10.6510 -15.8465 -1.8331 0.9261
-7.6885 -17.5382 -1.8384 0.9259
-6.1028 -18.1821 -1.8413 0.9258
-4.4639 -18.6833 -1.8442 0.9257
-2.7841 -19.0374 -1.8471 0.9256
16.9910 9.6570 -1.8763 0.9245
16.0458 11.1229 -1.8744 0.9245
13.7823 13.7649 -1.8701 0.9247
12.5110 14.9531 -1.8718 0.9246
6.9934 12.2686 -1.3558 0.9448
2.9784 11.6574 -1.1551 0.9528
-0.2070 11.6296 -1.1167 0.9543
-10.1393 11.2776 -1.4559 0.9409
-12.4703 11.5982 -1.6350 0.9339
-17.4949 7.2308 -1.8174 0.9268
-12.5223 -12.1218 -1.6732 0.9324
-11.1354 -15.4986 -1.8322 0.9262
-9.7223 -16.4533 -1.8348 0.9261
-8.2282 -17.2803 -1.8375 0.9260
-5.0425 -18.5245 -1.8432 0.9258
-3.3755 -18.9305 -1.8461 0.9256
17.2899 9.1245 -1.8769 0.9244
16.3914 10.6201 -1.8751 0.9245
15.3624 12.0269 -1.8731 0.9246
14.2117 13.3335 -1.8709 0.9247
12.9674 14.5497 -1.8711 0.9247
7.2744 11.8828 -1.3376 0.9456
4.5332 11.6634 -1.2013 0.9510
1.2014 11.6506 -1.1244 0.9540
0.1566 11.6466 -1.1182 0.9543
-0.8780 11.5511 -1.1122 0.9545
-1.9028 11.4150 -1.1110 0.9546
-5.3756 11.6254 -1.2296 0.9498
-5.0076 8.6969 -0.9635 0.9605
-10.9763 15.6465 -1.8349 0.9261
-14.6197 12.0934 -1.8215 0.9266
-15.6272 10.7324 -1.8200 0.9267
-17.2635 7.7750 -1.8177 0.9267
-18.6053 6.4530 -1.8906 0.9239
-14.0775 -12.8000 -1.8267 0.9264
-11.6085 -15.1360 -1.8313 0.9262
-8.3064 -13.1044 -1.4895 0.9396
-5.6156 -18.3478 -1.8421 0.9258
-3.9629 -18.8053 -1.8451 0.9257
15.7367 11.5456 -1.8738 0.9246
14.6275 12.8885 -1.8717 0.9246
12.1087 15.2875 -1.8723 0.9246
6.7457 12.6086 -1.3728 0.9442
3.7691 11.6604 -1.1765 0.9519
2.6471 11.6561 -1.1475 0.9531
0.5209 11.6480 -1.1194 0.9542
-1.5410 11.4371 -1.1079 0.9547
-3.6146 11.1854 -1.1285 0.9539
-4.9416 11.6270 -1.2129 0.9505
-6.2169 11.6222 -1.2654 0.9484
-7.6193 11.6168 -1.3338 0.9457
-9.0757 11.4598 -1.4034 0.9430
-10.6067 11.1791 -1.4795 0.9400
-13.1583 11.5956 -1.6838 0.9319
-16.2160 9.8028 -1.8192 0.9267
-17.6803 6.7580 -1.8172 0.9268
-14.4646 -12.3490 -1.8259 0.9264
-13.3213 -13.6061 -1.8281 0.9263
-12.0701 -14.7590 -1.8304 0.9262
-9.2815 -16.7155 -1.8356 0.9260
-2.8677 -19.0234 -1.8470 0.9256
17.8366 8.0317 -1.8780 0.9244
17.0342 9.5824 -1.8764 0.9245
13.8438 13.7048 -1.8702 0.9247
12.5764 14.8969 -1.8717 0.9246
8.2922 11.8186 -1.3861 0.9436
8.5079 -14.7066 -2.0182 0.9339
9.7958 -13.9034 -2.0203 0.9338
11.0074 -12.9867 -2.0222 0.9337
12.1324 -11.9635 -2.0240 0.9337
13.1614 -10.8421 -2.0255 0.9336
16.1558 -5.5667 -2.0298 0.9335
16.5920 -4.1045 -2.0303 0.9335
16.8942 -2.6085 -2.0306 0.9335
17.0598 -1.0913 -2.0306 0.9335
17.0874 0.4347 -2.0304 0.9335
16.3462 4.9380 -2.0284 0.9335
14.6977 7.5029 -1.9602 0.9357
13.3284 8.3807 -1.8702 0.9385
12.5171 9.5280 -1.8686 0.9386
10.6044 11.5778 -1.8650 0.9387
9.5191 12.4641 -1.8630 0.9388
4.7169 11.6641 -1.4945 0.9506
0.3150 11.6472 -1.3840 0.9542
-1.7389 11.3827 -1.3678 0.9547
-7.9154 11.6157 -1.6697 0.9450
-7.3428 8.9426 -1.3745 0.9545
-11.7163 9.9629 -1.8269 0.9399
-15.0045 7.0044 -1.9670 0.9355
-16.0576 4.2395 -1.9728 0.9353
-16.3694 2.7899 -1.9725 0.9353
-16.5524 1.3187 -1.9724 0.9353
-16.6054 -0.1629 -1.9726 0.9353
-16.3204 -3.1123 -1.9736 0.9353
-15.9844 -4.5575 -1.9744 0.9352
-14.2340 -8.6429 -1.9781 0.9351
-12.4933 -11.0534 -1.9815 0.9350
-11.1103 -11.7561 -1.9214 0.9369
-6.0332 -14.2735 -1.8407 0.9395
2.2913 -16.7472 -2.0079 0.9342
3.7806 -16.4967 -2.0104 0.9341
5.2434 -16.1133 -2.0128 0.9340
6.6675 -15.5997 -2.0152 0.9339
10.5929 -13.3198 -2.0216 0.9337
15.3611 -7.4654 -2.0288 0.9335
15.9722 -6.0679 -2.0296 0.9335
16.8039 -3.1349 -2.0305 0.9335
17.0311 1.4255 -2.0301 0.9335
13.5874 7.9624 -1.8707 0.9385
12.8126 9.1351 -1.8692 0.9386
10.9648 11.2450 -1.8656 0.9387
9.9077 12.1653 -1.8637 0.9388
8.1428 12.0528 -1.7278 0.9431
6.8717 12.4350 -1.6876 0.9444
3.9450 11.6612 -1.4623 0.9516
2.8144 11.6568 -1.4245 0.9528
-0.3615 11.6435 -1.3837 0.9542
-1.3849 11.4520 -1.3702 0.9546
-2.4091 11.3215 -1.3749 0.9544
-3.4169 11.0862 -1.3780 0.9543
-7.3962 11.6177 -1.6359 0.9460
-8.9329 11.5999 -1.7391 0.9427
-10.4443 11.3118 -1.8288 0.9399
-11.4023 10.3268 -1.8274 0.9399
-12.2692 9.2619 -1.8260 0.9400
-13.0383 8.1256 -1.8249 0.9400
-15.9186 4.7394 -1.9729 0.9353
-16.2748 3.3001 -1.9726 0.9353
-16.5031 1.8351 -1.9724 0.9353
-16.5698 -1.1265 -1.9728 0.9353
-13.7156 -9.4593 -1.9791 0.9351
-12.8284 -10.6543 -1.9808 0.9350
-7.6935 -13.4224 -1.8377 0.9396
-5.1988 -14.6114 -1.8422 0.9394
-4.0714 -15.7784 -1.9356 0.9365
-1.2442 -16.8061 -2.0018 0.9344
0.2601 -16.8720 -2.0044 0.9343
1.7662 -16.8031 -2.0070 0.9342
3.2621 -16.5995 -2.0095 0.9341
7.5672 -15.1976 -2.0167 0.9339
14.3416 -9.2519 -2.0273 0.9336
15.1179 -7.9402 -2.0284 0.9335
15.7729 -6.5630 -2.0293 0.9335
16.9584 -2.1544 -2.0306 0.9335
17.0826 -0.6332 -2.0306 0.9335
17.0686 0.8929 -2.0303 0.9335
16.6280 3.9089 -2.0290 0.9335
16.2053 5.3739 -2.0280 0.9335
15.6230 6.7813 -2.0231 0.9337
14.0566 7.6578 -1.9014 0.9376
13.0956 8.7330 -1.8697 0.9386
10.2867 11.8544 -1.8644 0.9387
7.1560 12.0446 -1.6642 0.9451
4.3561 11.6628 -1.4789 0.9511
3.2033 11.6583 -1.4362 0.9525
0.0024 11.6460 -1.3834 0.9542
-1.0294 11.5216 -1.3741 0.9545
-4.0668 10.9020 -1.3822 0.9542
-5.1040 8.5988 -1.1878 0.9605
-7.5644 8.7245 -1.3717 0.9546
-11.9768 9.6430 -1.8265 0.9399
-13.4832 7.3526 -1.8243 0.9400
-15.2307 6.6184 -1.9726 0.9353
-15.7642 5.2349 -1.9731 0.9353
-16.4380 2.3498 -1.9724 0.9353
-16.5958 -0.6083 -1.9727 0.9353
-16.2329 -3.5494 -1.9738 0.9353
-14.7384 -7.7332 -1.9771 0.9352
-14.0004 -9.0237 -1.9786 0.9351
-13.1508 -10.2451 -1.9802 0.9351
-12.1821 -11.3750 -1.9798 0.9351
-9.2376 -12.3807 -1.8349 0.9397
-8.0960 -13.1543 -1.8348 0.9397
-6.9068 -13.8571 -1.8392 0.9395
-4.4554 -15.2773 -1.8903 0.9379
2.7408 -16.6860 -2.0086 0.9342
5.6758 -15.9726 -2.0135 0.9340
9.7339 -13.9458 -2.0202 0.9338
12.0790 -12.0164 -2.0239 0.9337
14.0425 -9.6933 -2.0269 0.9336
15.5580 -7.0515 -2.0290 0.9335
16.1308 -5.6378 -2.0298 0.9335
16.8825 -2.6831 -2.0306 0.9335
17.0548 -1.1666 -2.0306 0.9335
17.0893 0.3593 -2.0304 0.9335
16.9855 1.8817 -2.0300 0.9335
16.7444 3.3881 -2.0293 0.9335
12.5596 9.4731 -1.8687 0.9386
11.6537 10.5457 -1.8670 0.9387
10.6559 11.5315 -1.8651 0.9387
7.4183 11.6419 -1.6398 0.9459
4.7770 11.6644 -1.4973 0.9505
4.6145 14.9497 -1.8585 0.9389
1.4139 11.6514 -1.3942 0.9538
-0.6715 11.5917 -1.3792 0.9543
-2.7188 11.2812 -1.3784 0.9543
-5.1241 11.6264 -1.5092 0.9501
-4.9061 8.8868 -1.2058 0.9599
-9.7235 11.9493 -1.8300 0.9398
-10.7412 11.0248 -1.8284 0.9399
-12.5108 8.9277 -1.8257 0.9400
-13.2494 7.7717 -1.8246 0.9400
-16.0389 4.3104 -1.9728 0.9353
-16.3570 2.8622 -1.9725 0.9353
-16.5348 -1.5707 -1.9729 0.9353
-15.5480 -5.8995 -1.9754 0.9352
-14.2715 -8.5796 -1.9780 0.9351
-9.6162 -12.0815 -1.8342 0.9397
-6.0958 -14.2458 -1.8406 0.9395
-0.7932 -16.8400 -2.0026 0.9343
3.7076 -16.5122 -2.0103 0.9341
5.1719 -16.1354 -2.0127 0.9340
6.5982 -15.6281 -2.0151 0.9339
7.9748 -14.9941 -2.0173 0.9339
10.5335 -13.3658 -2.0215 0.9337
11.6943 -12.3842 -2.0233 0.9337
14.5872 -8.8654 -2.0277 0.9336
15.3277 -7.5329 -2.0287 0.9335
16.4338 -4.6929 -2.0301 0.9335
17.0929 -0.1748 -2.0305 0.9335
17.0375 1.3503 -2.0302 0.9335
16.8442 2.8638 -2.0296 0.9335
16.5150 4.3530 -2.0288 0.9335
16.0527 5.8058 -2.0277 0.9335
15.3024 7.1358 -2.0056 0.9342
12.8533 9.0789 -1.8693 0.9386
11.0149 11.1971 -1.8657 0.9387
6.9123 12.3791 -1.6842 0.9445
4.0025 11.6614 -1.4645 0.9515
2.8690 11.6570 -1.4260 0.9528
-1.3348 11.4618 -1.3707 0.9546
-3.3676 11.1001 -1.3779 0.9543
-5.9509 11.6232 -1.5511 0.9488
-8.8468 11.5936 -1.7323 0.9429
-11.3571 10.3774 -1.8274 0.9399
-15.4101 6.2104 -1.9736 0.9353
-16.2602 3.3719 -1.9726 0.9353
-16.4949 1.9079 -1.9724 0.9353
-16.5999 0.4291 -1.9725 0.9353
-15.1854 -6.7945 -1.9761 0.9352
-14.5288 -8.1275 -1.9775 0.9351
-13.7566 -9.3983 -1.9790 0.9351
-12.8747 -10.5971 -1.9808 0.9350
-10.1073 -11.9148 -1.8560 0.9390
-8.9052 -12.6283 -1.8355 0.9397
-7.7522 -13.3876 -1.8376 0.9396
-2.8078 -16.5933 -1.9991 0.9345
-1.3183 -16.7994 -2.0017 0.9344
6.1043 -15.8202 -2.0143 0.9340
7.4996 -15.2300 -2.0166 0.9339
8.8377 -14.5161 -2.0187 0.9338
12.4000 -11.6909 -2.0244 0.9337
14.3002 -9.3149 -2.0272 0.9336
16.2777 -5.2035 -2.0300 0.9335
16.6806 -3.7317 -2.0304 0.9335
16.9487 -2.2293 -2.0306 0.9335
16.6455 3.8356 -2.0291 0.9335
16.2293 5.3025 -2.0281 0.9335
15.6754 6.7219 -2.0260 0.9336
11.3633 10.8513 -1.8664 0.9387
8.6147 11.8199 -1.7374 0.9428
7.1956 11.9904 -1.6611 0.9452
5.6532 11.6677 -1.5401 0.9491
4.4150 11.6630 -1.4813 0.9510
1.0975 11.6502 -1.3900 0.9540
0.0538 11.6462 -1.3834 0.9542
-1.9947 11.3475 -1.3686 0.9547
-4.0173 10.9161 -1.3817 0.9542
-5.5005 11.6250 -1.5277 0.9495
-8.2782 11.5816 -1.6910 0.9443
-7.5045 8.7330 -1.3678 0.9547
-13.4510 7.4123 -1.8243 0.9400
-16.5780 0.9475 -1.9724 0.9353
-16.4880 -2.0139 -1.9731 0.9353
-15.8801 -4.9152 -1.9746 0.9352
-14.7719 -7.6678 -1.9770 0.9352
-12.2369 -11.3254 -1.9806 0.9350
-10.6711 -11.8108 -1.8908 0.9379
-9.2917 -12.3391 -1.8348 0.9397
-5.7136 -14.4096 -1.8413 0.9395
-4.5101 -15.2147 -1.8850 0.9381
-0.3413 -16.8618 -2.0034 0.9343
2.6669 -16.6969 -2.0085 0.9342
4.1507 -16.4129 -2.0110 0.9341
5.6048 -15.9966 -2.0134 0.9340
7.0175 -15.4508 -2.0158 0.9339
8.3769 -14.7796 -2.0180 0.9339
9.6718 -13.9879 -2.0201 0.9338
10.8913 -13.0821 -2.0220 0.9337
14.8222 -8.4724 -2.0280 0.9335
15.5264 -7.1200 -2.0290 0.9335
16.1055 -5.7089 -2.0297 0.9335
16.8704 -2.7576 -2.0306 0.9335
17.0496 -1.2418 -2.0306 0.9335
17.0908 0.2838 -2.0304 0.9335
16.3900 4.7938 -2.0285 0.9335
14.8473 7.4149 -1.9714 0.9353
12.6018 9.4179 -1.8688 0.9386
11.7008 10.4947 -1.8670 0.9386
10.7073 11.4850 -1.8652 0.9387
9.6298 12.3809 -1.8632 0.9388
8.3003 12.9001 -1.8221 0.9401
4.8373 11.6646 -1.5000 0.9504
2.5391 11.6558 -1.4170 0.9531
1.4662 11.6516 -1.3950 0.9538
0.4179 11.6476 -1.3845 0.9541
-3.6674 11.0155 -1.3791 0.9543
-6.3492 11.6217 -1.5731 0.9481
-10.6929 11.0725 -1.8285 0.9399
-11.6288 10.0667 -1.8270 0.9399
-14.7897 7.0638 -1.9469 0.9361
-16.3443 2.9344 -1.9725 0.9353
-16.6060 -0.0163 -1.9726 0.9353
-16.3466 -2.9681 -1.9735 0.9353
-16.0233 -4.4160 -1.9743 0.9352
-15.5735 -5.8306 -1.9753 0.9352
-15.0006 -7.2008 -1.9765 0.9352
-12.5893 -10.9416 -1.9813 0.9350
-11.2892 -11.7360 -1.9344 0.9365
-8.5661 -12.8670 -1.8361 0.9396
-7.3929 -13.5955 -1.8383 0.9396
-2.3626 -16.6691 -1.9998 0.9344
-0.8675 -16.8353 -2.0024 0.9343
0.6384 -16.8673 -2.0050 0.9343
2.1430 -16.7646 -2.0076 0.9342
7.9081 -15.0283 -2.0172 0.9339
9.2268 -14.2782 -2.0194 0.9338
10.4739 -13.4115 -2.0214 0.9338
11.6390 -12.4352 -2.0232 0.9337
12.7122 -11.3568 -2.0249 0.9336
14.5475 -8.9295 -2.0276 0.9336
15.2940 -7.6003 -2.0287 0.9335
15.9175 -6.2085 -2.0295 0.9335
16.7754 -3.2831 -2.0305 0.9335
17.0025 -1.7739 -2.0306 0.9335
17.0921 -0.2502 -2.0305 0.9335
16.8570 2.7895 -2.0296 0.9335
16.0786 5.7350 -2.0278 0.9335
12.8938 9.0224 -1.8693 0.9386
12.0269 10.1274 -1.8677 0.9386
10.0157 12.0787 -1.8639 0.9388
6.9528 12.3236 -1.6808 0.9446
5.2709 11.6663 -1.5207 0.9497
4.0603 11.6616 -1.4668 0.9515
2.9236 11.6572 -1.4276 0.9527
1.8378 11.6531 -1.4013 0.9536
-2.3062 11.3280 -1.3732 0.9545
-4.6372 11.6283 -1.4871 0.9508
-5.8864 11.6235 -1.5477 0.9489
-7.2531 11.6183 -1.6269 0.9463
-8.7702 11.5990 -1.7273 0.9431
-11.3116 10.4278 -1.8275 0.9399
-12.9668 8.2409 -1.8250 0.9400
-15.3828 6.2785 -1.9736 0.9353
-15.8765 4.8799 -1.9730 0.9353
-16.2453 3.4436 -1.9726 0.9353
-16.4863 1.9808 -1.9724 0.9353
-16.4295 -2.4557 -1.9733 0.9353
-16.1509 -3.9127 -1.9740 0.9353
-13.7974 -9.3371 -1.9790 0.9351
-12.9208 -10.5396 -1.9807 0.9350
-8.9603 -12.5881 -1.8354 0.9397
-7.8107 -13.3525 -1.8375 0.9396
-2.8808 -16.5797 -1.9989 0.9345
-1.3923 -16.7923 -2.0015 0.9344
1.6176 -16.8159 -2.0067 0.9342
10.0465 -13.7275 -2.0207 0.9338
12.3478 -11.7451 -2.0243 0.9337
13.3564 -10.6050 -2.0258 0.9336
15.0465 -8.0730 -2.0283 0.9335
16.2544 -5.2752 -2.0299 0.9335
16.6638 -3.8053 -2.0304 0.9335
16.9387 -2.3041 -2.0306 0.9335
17.0765 -0.7840 -2.0306 0.9335
16.6626 3.7622 -2.0291 0.9335
15.7126 6.6559 -2.0270 0.9336
13.1732 8.6178 -1.8699 0.9386
12.3413 9.7500 -1.8683 0.9386
11.4117 10.8016 -1.8665 0.9387
10.3921 11.7643 -1.8646 0.9387
7.2350 11.9363 -1.6580 0.9453
3.3144 11.6587 -1.4398 0.9523
-0.9285 11.5414 -1.3754 0.9544
-1.9437 11.3507 -1.3679 0.9547
-2.9694 11.2116 -1.3777 0.9544
-3.9678 10.9302 -1.3813 0.9542
-5.4379 11.6252 -1.5245 0.9496
-5.0025 8.6000 -1.1818 0.9607
-8.9093 12.5814 -1.8313 0.9398
-11.8920 9.7490 -1.8266 0.9399
-13.4185 7.4717 -1.8244 0.9400
-15.1572 6.7462 -1.9707 0.9354
-15.7179 5.3740 -1.9732 0.9353
-16.1307 3.9496 -1.9727 0.9353
-16.4167 2.4949 -1.9725 0.9353
-16.6003 -0.4618 -1.9726 0.9353
-16.2630 -3.4058 -1.9737 0.9353
-15.4141 -6.2474 -1.9757 0.9352
-13.2396 -10.1277 -1.9800 0.9351
-12.2916 -11.2757 -1.9814 0.9350
-10.7529 -11.7962 -1.8960 0.9377
-7.0280 -13.7939 -1.8389 0.9395
-4.5645 -15.1524 -1.8798 0.9382
-3.3890 -16.4413 -1.9941 0.9346
-1.9154 -16.7330 -2.0006 0.9344
5.5338 -16.0202 -2.0133 0.9340
8.3111 -14.8156 -2.0179 0.9339
10.8330 -13.1295 -2.0219 0.9337
13.0153 -11.0142 -2.0253 0.9336
14.7843 -8.5375 -2.0279 0.9335
15.4944 -7.1883 -2.0289 0.9335
16.8580 -2.8320 -2.0306 0.9335
17.0440 -1.3171 -2.0306 0.9335
16.7743 3.2403 -2.0294 0.9335
16.4114 4.7215 -2.0285 0.9335
15.9162 6.1632 -2.0274 0.9336
12.6438 9.3626 -1.8689 0.9386
10.7584 11.4382 -1.8653 0.9387
9.6849 12.3390 -1.8633 0.9388
8.3813 12.9004 -1.8274 0.9399
2.5931 11.6560 -1.4184 0.9530
1.5185 11.6518 -1.3958 0.9538
-0.5698 11.6116 -1.3810 0.9543
-1.5890 11.4120 -1.3687 0.9546
-9.6185 12.0358 -1.8301 0.9398
-10.6443 11.1201 -1.8285 0.9399
-11.5846 10.1183 -1.8271 0.9399
-12.4323 9.0384 -1.8258 0.9400
-13.1810 7.8887 -1.8247 0.9400
-16.0006 4.4519 -1.9728 0.9353
-16.5334 1.5378 -1.9724 0.9353
-16.0422 -4.3451 -1.9743 0.9352
-15.0317 -7.1343 -1.9765 0.9352
-14.3457 -8.4526 -1.9779 0.9351
-13.5453 -9.7063 -1.9795 0.9351
-12.6369 -10.8854 -1.9812 0.9350
-7.4524 -13.5620 -1.8382 0.9396
-2.4360 -16.6575 -1.9997 0.9344
-0.9417 -16.8302 -2.0023 0.9344
0.5639 -16.8689 -2.0049 0.9343
2.0690 -16.7729 -2.0075 0.9342
5.0286 -16.1785 -2.0125 0.9340
6.4593 -15.6839 -2.0148 0.9340
10.4141 -13.4570 -2.0213 0.9338
12.6615 -11.4124 -2.0248 0.9336
13.6389 -10.2450 -2.0263 0.9336
14.5075 -8.9934 -2.0276 0.9336
15.2599 -7.6676 -2.0286 0.9335
16.3913 -4.8377 -2.0301 0.9335
16.7606 -3.3571 -2.0305 0.9335
17.0909 -0.3256 -2.0305 0.9335
17.0491 1.1998 -2.0302 0.9335
16.5535 4.2072 -2.0288 0.9335
16.1042 5.6641 -2.0278 0.9335
8.2145 11.8184 -1.7097 0.9437
5.3332 11.6665 -1.5238 0.9496
4.1182 11.6618 -1.4691 0.9514
2.9784 11.6575 -1.4292 0.9527
1.8906 11.6533 -1.4023 0.9536
0.8346 11.6492 -1.3873 0.9540
-1.2344 11.4815 -1.3717 0.9546
-2.2548 11.3312 -1.3724 0.9545
-4.5779 11.6285 -1.4845 0.9509
-7.1822 11.6185 -1.6225 0.9465
-10.2949 11.4506 -1.8291 0.9399
-11.2659 10.4780 -1.8276 0.9399
-15.3552 6.3465 -1.9736 0.9353
-15.8551 4.9500 -1.9730 0.9353
-16.2301 3.5154 -1.9726 0.9353
-16.5828 -0.9070 -1.9727 0.9353
-16.4399 -2.3831 -1.9732 0.9353
-16.1677 -3.8413 -1.9740 0.9353
-6.6579 -13.9826 -1.8396 0.9395
-4.2346 -15.5567 -1.9152 0.9371
-2.9538 -16.5657 -1.9988 0.9345
-1.4663 -16.7849 -2.0014 0.9344
0.0367 -16.8707 -2.0040 0.9343
1.5433 -16.8218 -2.0066 0.9342
3.0414 -16.6382 -2.0091 0.9341
4.5189 -16.3208 -2.0116 0.9341
5.9638 -15.8716 -2.0140 0.9340
16.9282 -2.3788 -2.0306 0.9335
16.9479 2.1870 -2.0299 0.9335
16.2763 5.1592 -2.0282 0.9335
15.7423 6.5868 -2.0270 0.9336
14.3924 7.5954 -1.9331 0.9366
12.3848 9.6958 -1.8684 0.9386
10.4445 11.7189 -1.8647 0.9387
9.3474 12.5901 -1.8626 0.9388
2.2665 11.6547 -1.4104 0.9533
0.1566 11.6466 -1.3836 0.9542
-1.8926 11.3538 -1.3673 0.9547
-12.6678 8.7000 -1.8255 0.9400
-13.3857 7.5312 -1.8244 0.9400
-15.6942 5.4433 -1.9732 0.9353
-16.4055 2.5673 -1.9725 0.9353
-16.6020 -0.3886 -1.9726 0.9353
-16.5047 -1.8682 -1.9730 0.9353
-16.2775 -3.3340 -1.9737 0.9353
-15.9221 -4.7746 -1.9745 0.9352
-15.4411 -6.1790 -1.9756 0.9352
-14.8379 -7.5366 -1.9769 0.9352
-14.1170 -8.8365 -1.9783 0.9351
-13.2836 -10.0688 -1.9800 0.9351
-9.3992 -12.2553 -1.8346 0.9397
-8.2625 -13.0351 -1.8332 0.9397
-7.0885 -13.7619 -1.8388 0.9395
-4.6187 -15.0904 -1.8746 0.9384
1.0166 -16.8542 -2.0057 0.9342
4.0052 -16.4469 -2.0108 0.9341
6.8800 -15.5104 -2.0155 0.9339
8.2452 -14.8514 -2.0178 0.9339
11.9174 -12.1738 -2.0236 0.9337
13.9116 -9.8775 -2.0267 0.9336
14.7460 -8.6025 -2.0279 0.9335
15.4623 -7.2564 -2.0289 0.9335
16.8453 -2.9064 -2.0305 0.9335
17.0380 -1.3924 -2.0306 0.9335
17.0095 1.6567 -2.0301 0.9335
16.4324 4.6491 -2.0286 0.9335
13.4764 8.1454 -1.8705 0.9385
12.6856 9.3071 -1.8689 0.9386
11.7941 10.3919 -1.8672 0.9386
10.8094 11.3911 -1.8654 0.9387
8.4626 12.9007 -1.8327 0.9397
6.7454 12.6082 -1.6985 0.9440
4.9587 11.6651 -1.5056 0.9502
2.6471 11.6562 -1.4198 0.9530
-6.2169 11.6222 -1.5657 0.9483
-10.5956 11.1674 -1.8286 0.9399
-12.3926 9.0935 -1.8259 0.9400
-13.1464 7.9471 -1.8248 0.9400
-16.3179 3.0786 -1.9725 0.9353
-16.6053 0.1302 -1.9725 0.9353
-16.3717 -2.8235 -1.9734 0.9353
-16.0609 -4.2742 -1.9742 0.9352
-15.6235 -5.6925 -1.9752 0.9352
-15.0626 -7.0676 -1.9764 0.9352
-14.3822 -8.3890 -1.9778 0.9351
-12.6842 -10.8290 -1.9811 0.9350
-9.8045 -11.9887 -1.8397 0.9395
-8.6783 -12.7894 -1.8359 0.9396
-7.5117 -13.5282 -1.8381 0.9396
-5.0008 -14.6835 -1.8426 0.9394
-3.9008 -16.0135 -1.9578 0.9358
-1.0159 -16.8248 -2.0022 0.9344
0.4894 -16.8702 -2.0048 0.9343
3.4879 -16.5568 -2.0099 0.9341
6.3896 -15.7114 -2.0147 0.9340
12.6105 -11.4677 -2.0247 0.9336
15.2255 -7.7347 -2.0286 0.9335
16.8815 2.6406 -2.0297 0.9335
15.4612 6.9621 -2.0142 0.9340
13.7279 7.7225 -1.8710 0.9385
8.2922 11.8187 -1.7150 0.9435
11.7842 -8.0578 -2.0227 0.9440
13.5130 -4.6560 -2.0251 0.9439
13.8773 -3.4329 -2.0255 0.9439
14.1297 -2.1817 -2.0258 0.9439
13.2447 5.3314 -2.0230 0.9440
12.7094 6.4879 -2.0219 0.9440
11.7551 7.3914 -1.9675 0.9454
10.4756 7.9739 -1.8654 0.9482
7.9705 10.4363 -1.8606 0.9483
7.0012 11.0950 -1.8589 0.9484
5.9777 11.6636 -1.8570 0.9484
-3.9807 11.6135 -1.7395 0.9516
-7.2904 10.6985 -1.8344 0.9490
-7.3297 8.9267 -1.6366 0.9544
-9.8412 8.3684 -1.8304 0.9491
-10.5423 7.4530 -1.8293 0.9492
-12.6519 5.9062 -1.9784 0.9452
-13.1242 4.7527 -1.9777 0.9452
-13.4929 3.5624 -1.9773 0.9452
-13.7551 2.3444 -1.9771 0.9452
-13.9090 1.1081 -1.9770 0.9452
-13.7128 -2.6150 -1.9780 0.9452
-12.5476 -6.1602 -1.9806 0.9451
-10.4905 -9.2813 -1.9846 0.9450
-9.6287 -10.1884 -1.9863 0.9449
-8.6893 -11.0164 -1.9880 0.9449
-5.4787 -12.9617 -1.9939 0.9447
-3.0951 -13.7581 -1.9981 0.9446
-1.8576 -13.9945 -2.0003 0.9446
0.6599 -14.1326 -2.0046 0.9444
4.3917 -13.4959 -2.0109 0.9443
5.5834 -13.0632 -2.0129 0.9442
8.8660 -11.1483 -2.0182 0.9441
10.7211 -9.4091 -2.0211 0.9440
12.8494 -6.2447 -2.0242 0.9439
13.7624 -3.8645 -2.0254 0.9439
14.0543 -2.6219 -2.0257 0.9439
14.2964 -0.0831 -2.0257 0.9439
14.2447 1.1923 -2.0254 0.9439
13.4071 4.9159 -2.0233 0.9439
12.9085 6.0890 -2.0223 0.9440
12.1765 7.1356 -1.9997 0.9446
10.7650 7.6753 -1.8733 0.9480
9.9901 8.5642 -1.8644 0.9482
8.2953 10.1855 -1.8612 0.9483
7.3468 10.8746 -1.8595 0.9484
6.3413 11.4752 -1.8577 0.9484
5.2871 11.9829 -1.8558 0.9485
1.7324 11.6527 -1.6692 0.9535
0.6796 11.6487 -1.6533 0.9540
-0.3615 11.6440 -1.6506 0.9540
-1.3850 11.4521 -1.6345 0.9545
-3.5848 11.6307 -1.7244 0.9520
-5.9578 11.5112 -1.8365 0.9490
-6.9547 10.9243 -1.8349 0.9490
-8.7712 9.4998 -1.8320 0.9491
-9.5771 8.6737 -1.8308 0.9491
-10.3064 7.7802 -1.8297 0.9492
-11.7782 7.3403 -1.9664 0.9455
-12.9706 5.1609 -1.9779 0.9452
-13.8676 1.5421 -1.9770 0.9452
-13.9503 0.2990 -1.9771 0.9452
-13.5408 -3.4073 -1.9784 0.9452
-13.1883 -4.6033 -1.9792 0.9451
-10.7724 -8.9467 -1.9841 0.9450
-9.9394 -9.8798 -1.9857 0.9450
-9.0263 -10.7362 -1.9874 0.9449
-6.9882 -12.1921 -1.9911 0.9448
-3.5221 -13.6496 -1.9973 0.9446
-2.2930 -13.9243 -1.9995 0.9446
-1.0430 -14.0887 -2.0017 0.9445
0.2180 -14.1409 -2.0039 0.9445
3.9665 -13.6217 -2.0102 0.9443
9.5028 -10.6203 -2.0192 0.9441
10.4196 -9.7372 -2.0206 0.9440
11.2536 -8.7745 -2.0219 0.9440
12.6463 -6.6421 -2.0240 0.9439
13.1932 -5.4896 -2.0247 0.9439
14.1834 -1.8019 -2.0258 0.9439
14.2873 -0.5296 -2.0257 0.9439
14.2760 0.7468 -2.0255 0.9439
13.5563 4.4955 -2.0236 0.9439
13.0949 5.6839 -2.0226 0.9440
12.4941 6.8066 -2.0159 0.9441
10.2556 8.2502 -1.8649 0.9482
8.6121 9.9246 -1.8618 0.9483
6.6990 11.2755 -1.8583 0.9484
1.0457 11.6501 -1.6573 0.9538
0.0024 11.6461 -1.6501 0.9540
-1.0294 11.5217 -1.6390 0.9543
-2.3080 12.7979 -1.8426 0.9488
-4.3340 11.6182 -1.7570 0.9511
-5.5971 11.6954 -1.8371 0.9490
-7.5729 10.4965 -1.8339 0.9491
-7.5485 8.7061 -1.6327 0.9545
-11.0866 7.3999 -1.8886 0.9476
-12.2618 6.6866 -1.9789 0.9451
-12.8045 5.5641 -1.9782 0.9452
-13.2460 4.3986 -1.9776 0.9452
-13.9339 0.7346 -1.9770 0.9452
-13.6390 -2.9823 -1.9782 0.9452
-12.3800 -6.4957 -1.9809 0.9451
-11.6787 -7.5273 -1.9687 0.9454
-11.0437 -8.6036 -1.9836 0.9450
-10.2402 -9.5617 -1.9851 0.9450
-9.3544 -10.4458 -1.9868 0.9449
-8.3929 -11.2486 -1.9886 0.9449
-7.3632 -11.9637 -1.9905 0.9448
-2.7258 -13.8407 -1.9987 0.9446
-0.2237 -14.1355 -2.0031 0.9445
2.2963 -13.9803 -2.0074 0.9444
3.5378 -13.7340 -2.0095 0.9443
4.7535 -13.3772 -2.0115 0.9443
7.0681 -12.3431 -2.0153 0.9442
9.1640 -10.9090 -2.0187 0.9441
13.0137 -5.8984 -2.0245 0.9439
13.4921 -4.7156 -2.0251 0.9439
13.8619 -3.4941 -2.0255 0.9439
14.1199 -2.2440 -2.0257 0.9439
14.2640 -0.9757 -2.0258 0.9439
14.2930 0.3005 -2.0256 0.9439
14.0058 2.8340 -2.0247 0.9439
12.7383 6.4320 -2.0219 0.9440
10.5110 7.9279 -1.8654 0.9482
9.7544 8.8270 -1.8640 0.9482
8.9207 9.6537 -1.8624 0.9483
6.0294 11.6377 -1.8571 0.9484
4.9622 12.1166 -1.8552 0.9485
3.8576 12.4977 -1.8532 0.9485
2.4852 11.6556 -1.6886 0.9530
-0.6715 11.5918 -1.6452 0.9542
-1.9078 12.8684 -1.8432 0.9488
-3.0448 12.6339 -1.8413 0.9489
-4.8766 8.8333 -1.4297 0.9601
-7.2434 10.7311 -1.8344 0.9490
-7.3083 8.9812 -1.6406 0.9543
-9.0210 9.2592 -1.8316 0.9491
-9.8045 8.4121 -1.8304 0.9491
-10.5096 7.4997 -1.8294 0.9492
-12.0300 7.0564 -1.9761 0.9452
-12.6260 5.9621 -1.9784 0.9452
-13.1033 4.8107 -1.9778 0.9452
-13.7447 2.4051 -1.9771 0.9452
-13.8936 -1.3198 -1.9774 0.9452
-13.0619 -4.9561 -1.9795 0.9451
-12.5743 -6.1046 -1.9805 0.9451
-11.9870 -7.2062 -1.9817 0.9451
-11.3041 -8.2523 -1.9831 0.9450
-10.5309 -9.2346 -1.9846 0.9450
-9.6732 -10.1454 -1.9862 0.9449
-7.7307 -11.7240 -1.9898 0.9448
-5.5356 -12.9368 -1.9938 0.9447
-4.3642 -13.3930 -1.9959 0.9447
-0.6649 -14.1162 -2.0023 0.9445
0.5975 -14.1346 -2.0045 0.9444
1.8578 -14.0400 -2.0067 0.9444
3.1060 -13.8329 -2.0088 0.9443
4.3318 -13.5145 -2.0108 0.9443
5.5254 -13.0871 -2.0128 0.9442
6.6769 -12.5539 -2.0147 0.9442
7.7770 -11.9188 -2.0165 0.9441
8.8163 -11.1869 -2.0181 0.9441
9.7864 -10.3638 -2.0197 0.9440
10.6791 -9.4560 -2.0210 0.9440
12.8215 -6.3012 -2.0242 0.9439
13.3369 -5.1342 -2.0249 0.9439
14.2500 1.1294 -2.0254 0.9439
14.0890 2.3953 -2.0249 0.9439
13.4290 4.8568 -2.0234 0.9439
12.2217 7.0898 -2.0020 0.9445
9.2207 9.3732 -1.8630 0.9483
8.3405 10.1493 -1.8613 0.9483
5.3402 11.9600 -1.8559 0.9485
3.9992 11.6518 -1.7455 0.9514
2.8690 11.6571 -1.7010 0.9527
-0.3468 13.0232 -1.8459 0.9487
-1.3348 11.4619 -1.6350 0.9545
-3.7704 12.4277 -1.8401 0.9489
-4.8591 12.0300 -1.8383 0.9489
-6.9067 10.9553 -1.8350 0.9490
-8.7295 9.5388 -1.8321 0.9491
-9.5390 8.7161 -1.8308 0.9491
-10.2722 7.8258 -1.8297 0.9492
-12.9479 5.2181 -1.9780 0.9452
-13.3583 4.0414 -1.9775 0.9452
-13.9488 0.3606 -1.9771 0.9452
-13.9272 -0.8851 -1.9773 0.9452
-13.5555 -3.3474 -1.9784 0.9452
-13.2082 -4.5450 -1.9792 0.9451
-12.7565 -5.7077 -1.9801 0.9451
-11.5535 -7.8932 -1.9826 0.9450
-4.7787 -13.2452 -1.9951 0.9447
-3.5821 -13.6332 -1.9972 0.9446
-2.3543 -13.9133 -1.9994 0.9446
-1.1051 -14.0832 -2.0016 0.9445
0.1556 -14.1410 -2.0037 0.9445
5.1122 -13.2488 -2.0121 0.9442
10.3761 -9.7828 -2.0206 0.9440
11.9634 -7.7927 -2.0230 0.9440
13.6148 -4.3523 -2.0252 0.9439
14.2792 0.6838 -2.0255 0.9439
14.1583 1.9543 -2.0251 0.9439
13.9234 3.2084 -2.0245 0.9439
13.1202 5.6262 -2.0227 0.9440
11.4379 7.5549 -1.9422 0.9461
10.2922 8.2052 -1.8650 0.9482
9.5118 9.0832 -1.8635 0.9483
8.6562 9.8869 -1.8619 0.9483
6.7491 11.2464 -1.8584 0.9484
5.7133 11.7916 -1.8565 0.9484
4.4119 11.6548 -1.7657 0.9509
3.2588 11.6586 -1.7152 0.9523
2.1599 11.6544 -1.6794 0.9532
-0.9790 11.5316 -1.6398 0.9543
-3.3815 12.5438 -1.8408 0.9489
-7.4822 8.7069 -1.6266 0.9547
-9.2643 9.0119 -1.8313 0.9491
-10.0248 8.1445 -1.8301 0.9492
-10.9932 7.4079 -1.8783 0.9479
-13.2266 4.4571 -1.9776 0.9452
-13.5688 3.2589 -1.9772 0.9452
-13.8040 2.0355 -1.9770 0.9452
-13.9472 -0.4496 -1.9772 0.9452
-13.8541 -1.6922 -1.9776 0.9452
-13.6518 -2.9220 -1.9781 0.9452
-13.3417 -4.1295 -1.9789 0.9451
-12.4082 -6.4408 -1.9809 0.9451
-11.7093 -7.4741 -1.9683 0.9454
-11.0811 -8.5544 -1.9835 0.9450
-8.4421 -11.2109 -1.9885 0.9449
-7.4156 -11.9305 -1.9904 0.9448
-6.3281 -12.5569 -1.9923 0.9448
-5.1882 -13.0847 -1.9944 0.9447
-4.0047 -13.5096 -1.9965 0.9447
-2.7867 -13.8278 -1.9986 0.9446
2.2345 -13.9896 -2.0073 0.9444
3.4770 -13.7488 -2.0094 0.9443
4.6942 -13.3975 -2.0114 0.9443
5.8762 -12.9379 -2.0134 0.9442
10.0630 -10.0997 -2.0201 0.9440
10.9310 -9.1679 -2.0214 0.9440
11.7119 -8.1611 -2.0226 0.9440
12.9873 -5.9557 -2.0244 0.9439
13.4710 -4.7750 -2.0251 0.9439
13.8462 -3.5552 -2.0255 0.9439
14.1098 -2.3063 -2.0257 0.9439
14.2943 0.2374 -2.0256 0.9439
14.0184 2.7722 -2.0247 0.9439
12.7669 6.3759 -2.0220 0.9440
11.8738 7.3206 -1.9764 0.9452
10.5463 7.8817 -1.8655 0.9482
7.0995 11.0338 -1.8590 0.9484
6.0810 11.6116 -1.8572 0.9484
5.0159 12.0952 -1.8553 0.9485
1.4662 11.6517 -1.6639 0.9537
0.4179 11.6477 -1.6514 0.9540
-1.6390 11.4024 -1.6322 0.9545
-5.1786 11.8919 -1.8378 0.9489
-8.9803 9.2992 -1.8317 0.9491
-10.4767 7.5462 -1.8294 0.9492
-11.9941 7.1067 -1.9754 0.9452
-12.5998 6.0179 -1.9784 0.9452
-13.7349 -2.4938 -1.9779 0.9452
-13.4623 -3.7102 -1.9786 0.9451
-12.6008 -6.0489 -1.9805 0.9451
-12.0183 -7.1530 -1.9816 0.9451
-10.5712 -9.1877 -1.9845 0.9450
-8.7854 -10.9383 -1.9878 0.9449
-7.7820 -11.6891 -1.9897 0.9448
-6.7149 -12.3488 -1.9916 0.9448
-1.9809 -13.9760 -2.0000 0.9446
-0.7272 -14.1124 -2.0022 0.9445
1.7957 -14.0473 -2.0066 0.9444
3.0447 -13.8457 -2.0087 0.9443
4.2719 -13.5328 -2.0107 0.9443
6.6212 -12.5827 -2.0146 0.9442
7.7239 -11.9526 -2.0164 0.9441
8.7665 -11.2253 -2.0181 0.9441
9.7402 -10.4065 -2.0196 0.9440
11.4491 -8.5213 -2.0222 0.9440
12.1699 -7.4701 -2.0233 0.9439
12.7933 -6.3576 -2.0242 0.9439
13.3139 -5.1930 -2.0249 0.9439
14.0305 -2.7459 -2.0257 0.9439
14.2203 -1.4836 -2.0258 0.9439
14.0997 2.3332 -2.0249 0.9439
13.4506 4.7976 -2.0234 0.9439
12.2668 7.0438 -2.0042 0.9445
9.2624 9.3327 -1.8630 0.9483
8.3856 10.1128 -1.8614 0.9483
7.4433 10.8104 -1.8597 0.9484
6.4430 11.4200 -1.8578 0.9484
1.8378 11.6531 -1.6715 0.9535
-1.2847 11.4718 -1.6356 0.9544
-2.5935 12.7396 -1.8421 0.9488
-3.7157 12.4448 -1.8402 0.9489
-9.5008 8.7584 -1.8309 0.9491
-10.2378 7.8713 -1.8298 0.9492
-12.4073 6.4094 -1.9787 0.9451
-12.9249 5.2753 -1.9780 0.9452
-13.3405 4.1004 -1.9775 0.9452
-13.6508 2.8937 -1.9771 0.9452
-13.8535 1.6645 -1.9770 0.9452
-13.9471 0.4221 -1.9771 0.9452
-13.8048 -2.0634 -1.9777 0.9452
-12.7812 -5.6513 -1.9801 0.9451
-12.2332 -6.7726 -1.9812 0.9451
-10.8501 -8.8506 -1.9839 0.9450
-9.1199 -10.6552 -1.9872 0.9449
-7.0949 -12.1287 -1.9909 0.9448
-5.9908 -12.7260 -1.9929 0.9448
-1.1672 -14.0774 -2.0015 0.9445
8.4092 -11.4904 -2.0175 0.9441
9.4080 -10.7029 -2.0191 0.9441
11.9285 -7.8453 -2.0229 0.9440
12.5866 -6.7532 -2.0239 0.9439
14.2821 -0.6557 -2.0258 0.9439
14.2822 0.6207 -2.0255 0.9439
13.9376 3.1469 -2.0245 0.9439
13.5961 4.3758 -2.0237 0.9439
13.1452 5.5684 -2.0228 0.9440
12.5828 6.7116 -2.0206 0.9440
10.3288 8.1600 -1.8651 0.9482
9.5522 9.0415 -1.8636 0.9483
7.7799 10.5761 -1.8603 0.9483
5.7656 11.7669 -1.8566 0.9484
4.4722 11.6584 -1.7692 0.9508
2.2132 11.6546 -1.6808 0.9532
1.1495 11.6505 -1.6588 0.9538
0.1052 11.6465 -1.6502 0.9540
-0.9285 11.5415 -1.6406 0.9543
-3.3263 12.5592 -1.8409 0.9489
-5.4942 11.7454 -1.8373 0.9490
-9.2247 9.0531 -1.8313 0.9491
-9.9890 8.1889 -1.8301 0.9492
-13.2070 4.5155 -1.9776 0.9452
-13.9268 0.8576 -1.9770 0.9452
-13.9490 -0.3880 -1.9772 0.9452
-12.9491 -5.2483 -1.9797 0.9451
-12.4362 -6.3858 -1.9808 0.9451
-7.4678 -11.8971 -1.9903 0.9448
-4.0640 -13.4911 -1.9964 0.9447
-2.8476 -13.8146 -1.9985 0.9446
-0.3485 -14.1314 -2.0029 0.9445
2.1726 -13.9986 -2.0072 0.9444
3.4161 -13.7633 -2.0093 0.9443
4.6348 -13.4174 -2.0113 0.9443
5.8187 -12.9631 -2.0133 0.9442
8.0439 -11.7441 -2.0169 0.9441
10.0180 -10.1437 -2.0200 0.9440
10.8901 -9.2158 -2.0214 0.9440
12.9607 -6.0128 -2.0244 0.9439
13.4496 -4.8344 -2.0250 0.9439
13.8303 -3.6163 -2.0255 0.9439
14.2953 0.1743 -2.0256 0.9439
14.2204 1.4484 -2.0253 0.9439
13.3151 5.1560 -2.0231 0.9439
11.9333 7.2848 -1.9810 0.9451
10.5814 7.8354 -1.8656 0.9482
9.0063 9.5754 -1.8626 0.9483
5.0695 12.0736 -1.8554 0.9485
2.5931 11.6560 -1.6919 0.9529
1.5185 11.6519 -1.6649 0.9536
0.4694 11.6479 -1.6517 0.9540
-2.9334 12.6615 -1.8415 0.9488
-5.1263 11.9153 -1.8379 0.9489
-7.1490 10.7955 -1.8346 0.9490
-8.9395 9.3391 -1.8318 0.9491
-9.7304 8.4988 -1.8305 0.9491
-12.5733 6.0736 -1.9785 0.9452
-13.0607 4.9263 -1.9778 0.9452
-13.9537 0.0478 -1.9771 0.9452
-13.7456 -2.4332 -1.9779 0.9452
-13.4783 -3.6507 -1.9785 0.9451
-12.0494 -7.0996 -1.9816 0.9451
-8.8332 -10.8989 -1.9878 0.9449
-7.8332 -11.6542 -1.9896 0.9449
-6.7690 -12.3184 -1.9915 0.9448
-5.6490 -12.8861 -1.9936 0.9447
-2.0425 -13.9664 -1.9999 0.9446
-0.7894 -14.1083 -2.0021 0.9445
0.4726 -14.1378 -2.0043 0.9445
1.7336 -14.0544 -2.0064 0.9444
4.2119 -13.5509 -2.0106 0.9443
6.5653 -12.6112 -2.0145 0.9442
7.6708 -11.9861 -2.0163 0.9441
10.5945 -9.5493 -2.0209 0.9440
12.1365 -7.5236 -2.0232 0.9439
12.7648 -6.4139 -2.0241 0.9439
13.2907 -5.2516 -2.0248 0.9439
13.7096 -4.0462 -2.0253 0.9439
14.2136 -1.5463 -2.0258 0.9439
14.2943 -0.2724 -2.0257 0.9439
14.2597 1.0035 -2.0254 0.9439
13.8467 3.5193 -2.0243 0.9439
12.3118 6.9975 -2.0065 0.9444
11.0196 7.6387 -1.8998 0.9473
10.1038 8.4321 -1.8646 0.9482
7.4913 10.7779 -1.8598 0.9484
5.4462 11.9137 -1.8561 0.9485
4.1131 11.6477 -1.7502 0.9513
0.8346 11.6493 -1.6548 0.9539
-0.2070 11.6306 -1.6482 0.9541
-2.5374 12.7516 -1.8422 0.9488
-5.8056 11.5906 -1.8368 0.9490
-6.8103 11.0168 -1.8351 0.9490
-7.7594 10.3569 -1.8336 0.9491
-8.6456 9.6162 -1.8322 0.9491
-11.4782 7.3662 -1.9324 0.9464
-13.3224 4.1592 -1.9775 0.9452
-13.6379 2.9539 -1.9772 0.9452
-13.9450 0.4837 -1.9770 0.9452
-13.5840 -3.2275 -1.9783 0.9452
-12.8057 -5.5946 -1.9800 0.9451
-12.2626 -6.7183 -1.9812 0.9451
-11.5490 -7.7415 -1.9700 0.9454
-10.0681 -9.7461 -1.9854 0.9450
-9.1665 -10.6143 -1.9871 0.9449
-8.1907 -11.4000 -1.9889 0.9449
0.0307 -14.1403 -2.0035 0.9445
1.2932 -14.0964 -2.0057 0.9444
3.7852 -13.6710 -2.0099 0.9443
7.2904 -12.2161 -2.0157 0.9441
11.8935 -7.8976 -2.0229 0.9440
12.5565 -6.8085 -2.0238 0.9439
13.1187 -5.6635 -2.0246 0.9439
13.9230 -3.2441 -2.0256 0.9439
14.2849 0.5576 -2.0256 0.9439
13.9516 3.0854 -2.0246 0.9439
13.6156 4.3158 -2.0238 0.9439
13.1700 5.5105 -2.0228 0.9440
12.6189 6.6595 -2.0217 0.9440
10.3651 8.1146 -1.8651 0.9482
9.5924 8.9996 -1.8637 0.9482
8.7440 9.8109 -1.8621 0.9483
6.8487 11.1875 -1.8586 0.9484
4.5328 11.6621 -1.7728 0.9507
3.3701 11.6590 -1.7196 0.9522
1.2015 11.6507 -1.6595 0.9538
-4.1530 11.5996 -1.7457 0.9514
-5.4425 11.7701 -1.8374 0.9490
-9.1849 9.0940 -1.8314 0.9491
-12.1729 6.8488 -1.9790 0.9451
-13.5397 3.3787 -1.9773 0.9452
-13.9505 -0.3265 -1.9772 0.9452
-13.8682 -1.5698 -1.9775 0.9452
-13.6766 -2.8012 -1.9781 0.9452
-13.3771 -4.0114 -1.9788 0.9451
-12.9719 -5.1909 -1.9797 0.9451
-11.7858 -7.3773 -1.9701 0.9454
-10.3647 -9.4241 -1.9849 0.9450
-9.4907 -10.3196 -1.9865 0.9449
-8.5400 -11.1350 -1.9883 0.9449
-6.4381 -12.4993 -1.9921 0.9448
-1.6676 -14.0208 -2.0006 0.9446
-0.4108 -14.1290 -2.0028 0.9445
0.8519 -14.1246 -2.0049 0.9444
2.1106 -14.0073 -2.0071 0.9444
4.5753 -13.4370 -2.0112 0.9443
6.9031 -12.4340 -2.0151 0.9442
9.0177 -11.0281 -2.0185 0.9441
9.9728 -10.1874 -2.0200 0.9440
10.8490 -9.2635 -2.0213 0.9440
12.3357 -7.1964 -2.0235 0.9439
13.4280 -4.8936 -2.0250 0.9439
13.8140 -3.6772 -2.0255 0.9439
14.0888 -2.4308 -2.0257 0.9439
14.2499 -1.1645 -2.0258 0.9439
14.2960 0.1112 -2.0257 0.9439
14.2268 1.3857 -2.0253 0.9439
13.3381 5.0972 -2.0232 0.9439
11.9929 7.2487 -1.9855 0.9450
10.6163 7.7889 -1.8656 0.9482
7.1973 10.9718 -1.8592 0.9484
2.6471 11.6562 -1.6936 0.9529
-0.5189 11.6217 -1.6483 0.9541
-1.5390 11.4220 -1.6330 0.9545
-2.8777 12.6750 -1.8416 0.9488
-5.0739 11.9383 -1.8380 0.9489
-8.0325 10.1426 -1.8332 0.9491
-8.8985 9.3787 -1.8318 0.9491
-10.4102 7.6388 -1.8295 0.9492
-11.9218 7.2069 -1.9739 0.9453
-13.9533 0.1094 -1.9771 0.9452
-13.4941 -3.5911 -1.9785 0.9451
-13.1255 -4.7824 -1.9793 0.9451
-12.6531 -5.9370 -1.9803 0.9451
-11.4112 -8.1010 -1.9828 0.9450
-10.6511 -9.0933 -1.9843 0.9450
-8.8809 -10.8593 -1.9877 0.9449
-7.8841 -11.6189 -1.9895 0.9449
-6.8230 -12.2878 -1.9914 0.9448
-4.5405 -13.3319 -1.9955 0.9447
-2.1039 -13.9565 -1.9998 0.9446
0.4102 -14.1390 -2.0042 0.9445
2.9220 -13.8706 -2.0085 0.9443
4.1519 -13.5687 -2.0105 0.9443
8.6664 -11.3014 -2.0179 0.9441
9.6473 -10.4913 -2.0194 0.9440
12.7361 -6.4701 -2.0241 0.9439
13.6915 -4.1067 -2.0253 0.9439
14.0055 -2.8696 -2.0257 0.9439
14.2930 -0.3355 -2.0257 0.9439
13.8624 3.4582 -2.0243 0.9439
13.4931 4.6789 -2.0235 0.9439
13.0154 5.8607 -2.0225 0.9440
9.3452 9.2514 -1.8632 0.9483
8.4754 10.0392 -1.8616 0.9483
6.1201 -10.5790 -2.0134 0.9517
7.0445 -9.9984 -2.0149 0.9516
8.7203 -8.5989 -2.0175 0.9516
10.7014 -5.9922 -2.0205 0.9515
11.6028 -3.9978 -2.0217 0.9515
12.2507 -0.7836 -2.0223 0.9515
12.2708 0.3122 -2.0221 0.9515
12.0153 2.4865 -2.0213 0.9515
10.9153 5.5721 -2.0189 0.9515
9.2030 7.0053 -1.9053 0.9542
8.3836 7.6541 -1.8701 0.9550
4.2196 10.4344 -1.8542 0.9554
0.3031 11.2096 -1.8473 0.9556
-0.6973 11.1815 -1.8456 0.9556
-1.6903 11.0646 -1.8439 0.9556
-3.6230 10.5697 -1.8407 0.9557
-4.5475 10.1960 -1.8392 0.9558
-7.0689 8.6091 -1.8351 0.9558
-8.7836 7.4691 -1.8994 0.9543
-10.4054 6.0419 -1.9822 0.9524
-11.3064 4.0944 -1.9810 0.9524
-12.0212 -0.1179 -1.9805 0.9524
-11.9644 -1.1899 -1.9807 0.9524
-11.5687 -3.2985 -1.9818 0.9524
-11.2326 -4.3189 -1.9825 0.9524
-10.2966 -6.2520 -1.9845 0.9523
-9.7036 -7.1497 -1.9856 0.9523
-9.0331 -7.9919 -1.9869 0.9523
-8.2901 -8.7720 -1.9883 0.9522
-7.4803 -9.4837 -1.9898 0.9522
-6.6099 -10.1212 -1.9914 0.9522
-5.6856 -10.6795 -1.9931 0.9521
-3.7042 -11.5403 -1.9967 0.9521
-2.6626 -11.8356 -1.9985 0.9520
-0.5183 -12.1430 -2.0023 0.9519
0.5674 -12.1522 -2.0041 0.9519
3.7746 -11.5996 -2.0095 0.9518
4.7982 -11.2262 -2.0112 0.9517
5.7851 -10.7621 -2.0129 0.9517
8.4457 -8.8652 -2.0171 0.9516
9.2081 -8.0813 -2.0183 0.9515
10.5076 -6.3227 -2.0202 0.9515
11.4713 -4.3580 -2.0216 0.9515
11.8167 -3.3181 -2.0220 0.9515
12.2750 -0.0713 -2.0222 0.9515
12.2309 1.0237 -2.0219 0.9515
11.8484 3.1790 -2.0209 0.9515
11.5133 4.2216 -2.0202 0.9515
11.0859 5.2293 -2.0193 0.9515
8.7599 7.5096 -1.9008 0.9543
6.3137 9.3454 -1.8580 0.9553
3.6048 10.6555 -1.8531 0.9554
2.6376 10.9244 -1.8514 0.9555
1.6511 11.1058 -1.8497 0.9555
-2.3283 10.9415 -1.8429 0.9557
-3.2920 10.6809 -1.8412 0.9557
-4.2280 10.3360 -1.8397 0.9557
-6.7981 8.8278 -1.8355 0.9558
-9.5883 7.2382 -1.9791 0.9525
-11.1739 4.4460 -1.9811 0.9524
-11.5234 3.4309 -1.9807 0.9524
-11.7819 2.3890 -1.9804 0.9524
-11.9474 1.3285 -1.9803 0.9524
-12.0186 0.2576 -1.9804 0.9524
-11.9951 -0.8155 -1.9806 0.9524
-11.8768 -1.8825 -1.9810 0.9524
-10.9661 -4.9649 -1.9831 0.9524
-9.9201 -6.8416 -1.9852 0.9523
-9.2761 -7.7041 -1.9865 0.9523
-8.5579 -8.5066 -1.9878 0.9523
-6.9209 -9.9070 -1.9909 0.9522
-6.0147 -10.4935 -1.9925 0.9522
-4.0616 -11.4153 -1.9960 0.9521
-3.0300 -11.7428 -1.9979 0.9520
-1.9724 -11.9774 -1.9997 0.9520
0.1875 -12.1600 -2.0035 0.9519
2.3494 -11.9552 -2.0072 0.9518
3.4094 -11.7083 -2.0089 0.9518
4.4439 -11.3673 -2.0107 0.9517
5.4446 -10.9346 -2.0123 0.9517
7.3117 -9.8079 -2.0153 0.9516
8.1628 -9.1227 -2.0167 0.9516
8.9494 -8.3633 -2.0179 0.9516
9.6650 -7.5358 -2.0190 0.9515
11.9432 2.8076 -2.0212 0.9515
10.7602 5.8620 -2.0186 0.9515
8.8397 7.1112 -1.8690 0.9550
7.3998 8.5275 -1.8600 0.9553
6.6044 9.1463 -1.8585 0.9553
5.7575 9.6908 -1.8570 0.9553
3.9371 10.5410 -1.8537 0.9554
2.9785 10.8402 -1.8520 0.9554
1.9979 11.0524 -1.8503 0.9555
0.0023 11.2105 -1.8468 0.9556
-3.9042 10.4660 -1.8402 0.9557
-5.0692 8.5402 -1.6361 0.9605
-6.5206 9.0380 -1.8360 0.9558
-7.2959 8.4147 -1.8347 0.9559
-9.2512 7.4485 -1.9566 0.9530
-10.0107 6.6818 -1.9828 0.9524
-10.5625 5.7600 -1.9820 0.9524
-11.0306 4.7933 -1.9813 0.9524
-12.0045 0.6329 -1.9804 0.9524
-12.0141 -0.4404 -1.9805 0.9524
-11.9289 -1.5105 -1.9808 0.9524
-11.7495 -2.5691 -1.9813 0.9524
-11.1141 -4.6192 -1.9828 0.9524
-9.5101 -7.4089 -1.9860 0.9523
-7.2250 -9.6832 -1.9903 0.9522
-3.3943 -11.6387 -1.9972 0.9520
-2.3448 -11.9061 -1.9991 0.9520
-1.2747 -12.0790 -2.0009 0.9520
-0.1924 -12.1560 -2.0028 0.9519
0.8934 -12.1359 -2.0047 0.9519
1.9742 -12.0189 -2.0065 0.9518
3.0410 -11.8055 -2.0083 0.9518
4.0855 -11.4971 -2.0101 0.9517
5.0989 -11.0962 -2.0117 0.9517
6.0731 -10.6055 -2.0133 0.9517
7.0000 -10.0290 -2.0148 0.9516
8.6820 -8.6371 -2.0175 0.9516
10.0892 -6.9644 -2.0196 0.9515
11.5849 -4.0490 -2.0217 0.9515
12.1234 -1.9267 -2.0223 0.9515
12.2471 -0.8377 -2.0223 0.9515
12.1983 1.3514 -2.0218 0.9515
11.3945 4.5283 -2.0199 0.9515
10.9400 5.5240 -2.0190 0.9515
8.4572 7.6531 -1.8790 0.9548
6.0592 9.5090 -1.8575 0.9553
4.2658 10.4162 -1.8543 0.9554
3.3167 10.7454 -1.8526 0.9554
1.3522 11.1429 -1.8491 0.9555
-0.6479 11.1850 -1.8457 0.9556
-1.6415 11.0725 -1.8440 0.9556
-2.6202 10.8722 -1.8424 0.9557
-3.5764 10.5860 -1.8408 0.9557
-6.2367 9.2396 -1.8364 0.9558
-7.0311 8.6405 -1.8352 0.9558
-8.7083 7.4716 -1.8903 0.9545
-9.7976 6.9916 -1.9829 0.9524
-11.2883 4.1443 -1.9810 0.9524
-11.6108 3.1204 -1.9806 0.9524
-11.8415 2.0721 -1.9804 0.9524
-11.9787 1.0076 -1.9803 0.9524
-12.0215 -0.0649 -1.9804 0.9524
-11.9695 -1.1370 -1.9807 0.9524
-10.3238 -6.2063 -1.9844 0.9523
-8.3284 -8.7350 -1.9883 0.9523
-7.5218 -9.4502 -1.9898 0.9522
-4.7635 -11.1324 -1.9948 0.9521
-1.6509 -12.0294 -2.0003 0.9520
-0.5718 -12.1401 -2.0022 0.9519
0.5138 -12.1540 -2.0040 0.9519
1.5973 -12.0709 -2.0059 0.9518
2.6700 -11.8910 -2.0077 0.9518
3.7232 -11.6157 -2.0095 0.9518
4.7484 -11.2468 -2.0112 0.9517
5.7373 -10.7871 -2.0128 0.9517
6.6817 -10.2402 -2.0143 0.9516
7.5738 -9.6102 -2.0157 0.9516
8.4062 -8.9022 -2.0170 0.9516
9.8651 -7.2750 -2.0193 0.9515
10.4793 -6.3689 -2.0202 0.9515
11.0097 -5.4108 -2.0209 0.9515
11.8019 -3.3702 -2.0220 0.9515
12.2354 0.9697 -2.0220 0.9515
10.5974 6.1475 -2.0183 0.9515
9.9215 7.0080 -2.0011 0.9520
8.7645 7.4466 -1.8946 0.9544
7.1667 8.7208 -1.8595 0.9553
6.3552 9.3178 -1.8581 0.9553
4.5905 10.2811 -1.8549 0.9554
2.6859 10.9132 -1.8515 0.9555
0.7028 11.1958 -1.8480 0.9555
-2.2800 10.9522 -1.8429 0.9557
-3.2450 10.6958 -1.8413 0.9557
-4.1825 10.3550 -1.8398 0.9557
-5.0853 9.9326 -1.8383 0.9558
-5.9465 9.4323 -1.8369 0.9558
-7.5176 8.2145 -1.8344 0.9559
-8.2155 7.5068 -1.8333 0.9559
-9.5534 7.2782 -1.9785 0.9525
-10.7121 5.4739 -1.9818 0.9524
-11.5083 3.4817 -1.9807 0.9524
-12.0173 0.3107 -1.9804 0.9524
-11.9984 -0.7625 -1.9806 0.9524
-11.6774 -2.8836 -1.9815 0.9524
-10.9877 -4.9163 -1.9830 0.9524
-10.5106 -5.8797 -1.9840 0.9523
-9.9499 -6.7976 -1.9851 0.9523
-9.3098 -7.6628 -1.9864 0.9523
-7.8113 -9.2081 -1.9892 0.9522
-6.9643 -9.8759 -1.9908 0.9522
-3.0817 -11.7288 -1.9978 0.9520
-2.0252 -11.9680 -1.9996 0.9520
-0.9505 -12.1123 -2.0015 0.9519
0.1338 -12.1602 -2.0034 0.9519
1.2190 -12.1110 -2.0052 0.9519
4.3935 -11.3863 -2.0106 0.9517
5.3960 -10.9580 -2.0122 0.9517
6.3568 -10.4412 -2.0138 0.9517
7.2681 -9.8397 -2.0152 0.9516
8.1222 -9.1584 -2.0166 0.9516
8.9122 -8.4025 -2.0178 0.9516
11.3075 -4.7637 -2.0213 0.9515
12.2650 -0.5089 -2.0223 0.9515
11.6583 3.8090 -2.0205 0.9515
8.8713 7.0723 -1.8690 0.9550
6.6450 9.1174 -1.8586 0.9553
4.9110 10.1358 -1.8554 0.9554
3.0265 10.8275 -1.8521 0.9554
2.0467 11.0440 -1.8504 0.9555
1.0525 11.1721 -1.8486 0.9555
0.0518 11.2109 -1.8469 0.9556
-5.0187 8.5409 -1.6320 0.9606
-6.4809 9.0670 -1.8360 0.9558
-7.2589 8.4471 -1.8348 0.9559
-7.9785 7.7612 -1.8337 0.9559
-9.9813 6.7261 -1.9828 0.9524
-11.6898 2.8076 -1.9805 0.9524
-12.0016 0.6859 -1.9804 0.9524
-12.0158 -0.3874 -1.9805 0.9524
-11.7606 -2.5172 -1.9813 0.9524
-11.4929 -3.5573 -1.9819 0.9524
-10.1553 -6.4821 -1.9847 0.9523
-8.0929 -8.9573 -1.9887 0.9522
-7.2673 -9.6508 -1.9902 0.9522
-6.3828 -10.2690 -1.9919 0.9522
-4.4644 -11.2592 -1.9953 0.9521
-3.4454 -11.6231 -1.9971 0.9520
-2.3972 -11.8951 -1.9990 0.9520
-0.2460 -12.1544 -2.0027 0.9519
0.8398 -12.1392 -2.0046 0.9519
2.9888 -11.8183 -2.0082 0.9518
6.9555 -10.0595 -2.0147 0.9516
8.6436 -8.6751 -2.0174 0.9516
10.0581 -7.0087 -2.0196 0.9515
11.5668 -4.1001 -2.0217 0.9515
11.8886 -3.0526 -2.0220 0.9515
12.2433 -0.8917 -2.0223 0.9515
11.7732 3.4434 -2.0208 0.9515
11.4146 4.4781 -2.0200 0.9515
10.9646 5.4758 -2.0190 0.9515
10.4269 6.4285 -2.0179 0.9516
9.3614 6.9962 -1.9253 0.9537
8.5314 7.6520 -1.8879 0.9546
6.9285 8.9079 -1.8591 0.9553
5.2268 9.9805 -1.8560 0.9554
4.3119 10.3977 -1.8544 0.9554
3.3643 10.7311 -1.8527 0.9554
2.3915 10.9782 -1.8510 0.9555
0.4021 11.2075 -1.8475 0.9556
-4.4577 10.2365 -1.8393 0.9557
-6.1960 9.2674 -1.8365 0.9558
-7.7338 8.0084 -1.8341 0.9559
-9.7636 7.0326 -1.9823 0.9524
-10.3520 6.1338 -1.9823 0.9524
-10.8540 5.1841 -1.9816 0.9524
-11.5969 3.1716 -1.9806 0.9524
-11.8322 2.1243 -1.9804 0.9524
-11.9742 1.0605 -1.9803 0.9524
-11.8324 -2.1484 -1.9811 0.9524
-11.5970 -3.1961 -1.9817 0.9524
-11.2699 -4.2193 -1.9824 0.9524
-9.7657 -7.0634 -1.9855 0.9523
-5.7792 -10.6280 -1.9930 0.9521
-3.8057 -11.5061 -1.9965 0.9521
-2.7667 -11.8105 -1.9983 0.9520
-1.7039 -12.0214 -2.0002 0.9520
3.6717 -11.6315 -2.0094 0.9518
5.6894 -10.8119 -2.0127 0.9517
6.6361 -10.2692 -2.0142 0.9516
7.5310 -9.6432 -2.0157 0.9516
9.1359 -8.1618 -2.0182 0.9515
9.8327 -7.3183 -2.0192 0.9515
11.7868 -3.4222 -2.0219 0.9515
12.2095 -1.2738 -2.0223 0.9515
12.2396 0.9157 -2.0220 0.9515
11.5506 4.1199 -2.0203 0.9515
11.1322 5.1315 -2.0194 0.9515
10.6247 6.1008 -2.0183 0.9515
9.9633 6.9718 -2.0033 0.9519
8.7690 7.3841 -1.8886 0.9546
7.9578 8.0182 -1.8610 0.9552
7.2054 8.6895 -1.8596 0.9553
4.6361 10.2611 -1.8549 0.9554
3.6991 10.6242 -1.8533 0.9554
2.7342 10.9017 -1.8516 0.9555
1.7493 11.0918 -1.8498 0.9555
0.7522 11.1931 -1.8481 0.9555
-0.2489 11.2051 -1.8464 0.9556
-3.1979 10.7104 -1.8414 0.9557
-4.1369 10.3737 -1.8398 0.9557
-5.9050 9.4588 -1.8370 0.9558
-6.7204 8.8880 -1.8356 0.9558
-8.1825 7.5431 -1.8334 0.9559
-9.5182 7.3180 -1.9779 0.9525
-10.6880 5.5213 -1.9818 0.9524
-11.4929 3.5325 -1.9807 0.9524
-11.9352 1.4340 -1.9803 0.9524
-11.8927 -1.7776 -1.9810 0.9524
-11.6898 -2.8320 -1.9815 0.9524
-11.3946 -3.8647 -1.9822 0.9524
-11.0091 -4.8677 -1.9830 0.9524
-10.5362 -5.8331 -1.9840 0.9524
-9.3432 -7.6214 -1.9863 0.9523
-6.1065 -10.4391 -1.9924 0.9522
-5.1555 -10.9516 -1.9941 0.9521
-4.1619 -11.3780 -1.9959 0.9521
-3.1333 -11.7146 -1.9977 0.9520
-2.0779 -11.9584 -1.9995 0.9520
-1.0039 -12.1074 -2.0014 0.9519
0.0801 -12.1601 -2.0033 0.9519
1.1655 -12.1157 -2.0051 0.9519
3.3056 -11.7370 -2.0088 0.9518
4.3430 -11.4051 -2.0105 0.9517
5.3474 -10.9813 -2.0121 0.9517
6.3105 -10.4688 -2.0137 0.9517
7.2244 -9.8714 -2.0152 0.9516
8.8748 -8.4415 -2.0178 0.9516
10.2439 -6.7373 -2.0198 0.9515
10.8084 -5.7990 -2.0207 0.9515
12.1644 1.6244 -2.0217 0.9515
11.9679 2.7022 -2.0212 0.9515
11.2889 4.7820 -2.0197 0.9515
10.8121 5.7671 -2.0187 0.9515
8.9027 7.0333 -1.8691 0.9550
7.4753 8.4625 -1.8601 0.9553
5.8434 9.6404 -1.8571 0.9553
4.9559 10.1144 -1.8555 0.9554
3.0743 10.8145 -1.8522 0.9554
1.1019 11.1678 -1.8487 0.9555
0.1013 11.2111 -1.8470 0.9556
-2.8626 10.8084 -1.8420 0.9557
-3.8120 10.5010 -1.8404 0.9557
-6.4410 9.0958 -1.8361 0.9558
-7.2218 8.4794 -1.8349 0.9559
-7.9444 7.7966 -1.8337 0.9559
-9.0955 7.4564 -1.9375 0.9534
-10.9882 4.8906 -1.9814 0.9524
-11.3777 3.8901 -1.9809 0.9524
-11.6773 2.8592 -1.9805 0.9524
-11.8847 1.8061 -1.9804 0.9524
-11.9984 0.7388 -1.9803 0.9524
-12.0174 -0.3343 -1.9805 0.9524
-11.9415 -1.4051 -1.9808 0.9524
-11.5082 -3.5064 -1.9819 0.9524
-10.7113 -5.5001 -1.9836 0.9524
-8.8890 -8.1543 -1.9872 0.9523
-8.1321 -8.9211 -1.9886 0.9522
-7.3096 -9.6183 -1.9902 0.9522
-3.4966 -11.6073 -1.9970 0.9520
-2.4496 -11.8838 -1.9989 0.9520
0.7862 -12.1422 -2.0045 0.9519
3.9834 -11.5318 -2.0099 0.9517
5.9788 -10.6579 -2.0132 0.9517
7.7885 -9.4397 -2.0161 0.9516
8.6049 -8.7129 -2.0174 0.9516
9.3531 -7.9151 -2.0185 0.9515
12.1058 -2.0337 -2.0222 0.9515
12.2100 1.2436 -2.0219 0.9515
12.0477 2.3273 -2.0214 0.9515
11.4345 4.4278 -2.0200 0.9515
10.4555 6.3826 -2.0180 0.9516
9.4419 6.9916 -1.9355 0.9535
8.6063 7.6509 -1.8970 0.9544
6.9681 8.8775 -1.8592 0.9553
5.2710 9.9577 -1.8561 0.9554
4.3580 10.3790 -1.8544 0.9554
2.4401 10.9681 -1.8510 0.9555
-0.5492 11.1913 -1.8459 0.9556
-2.5244 10.8959 -1.8425 0.9557
-4.8263 8.9275 -1.6719 0.9597
-6.1553 9.2949 -1.8366 0.9558
-6.9550 8.7028 -1.8353 0.9558
-7.6986 8.0427 -1.8341 0.9559
-8.5599 7.4764 -1.8723 0.9550
-9.7294 7.0734 -1.9816 0.9524
-10.8312 5.2320 -1.9816 0.9524
-11.2516 4.2439 -1.9810 0.9524
-11.5829 3.2228 -1.9806 0.9524
-11.8228 2.1765 -1.9804 0.9524
-11.9694 1.1133 -1.9803 0.9524
-12.0215 0.0412 -1.9804 0.9524
-11.6108 -3.1449 -1.9817 0.9524
-10.3776 -6.1146 -1.9843 0.9523
-9.7965 -7.0200 -1.9854 0.9523
-7.6044 -9.3827 -1.9896 0.9522
-5.8258 -10.6019 -1.9929 0.9521
-3.8562 -11.4887 -1.9964 0.9521
-2.8187 -11.7977 -1.9982 0.9520
-1.7568 -12.0133 -2.0001 0.9520
4.6486 -11.2873 -2.0110 0.9517
7.4881 -9.6761 -2.0156 0.9516
8.3268 -8.9755 -2.0169 0.9516
10.4223 -6.4609 -2.0201 0.9515
10.9612 -5.5076 -2.0209 0.9515
11.4122 -4.5094 -2.0215 0.9515
12.1156 1.9500 -2.0216 0.9515
11.5689 4.0689 -2.0203 0.9515
10.0032 6.9342 -2.0051 0.9519
7.2440 8.6579 -1.8597 0.9553
6.4377 9.2621 -1.8582 0.9553
5.5812 9.7912 -1.8566 0.9553
4.6815 10.2410 -1.8550 0.9554
3.7461 10.6082 -1.8533 0.9554
2.7824 10.8900 -1.8516 0.9555
