ply
format ascii 1.0
element vertex 1596
property float32 x
property float32 y
property float32 z
property float32 I
end_header
5.3439 -2.8013 -2.0056 0.9749
5.5733 -2.3138 -2.0059 0.9749
5.7583 -1.8078 -2.0062 0.9749
5.8972 -1.2871 -2.0064 0.9749
5.9891 -0.7560 -2.0066 0.9749
5.8764 1.3864 -2.0070 0.9749
5.7293 1.9050 -2.0070 0.9749
5.2993 2.8924 -2.0068 0.9749
5.0198 3.3533 -2.0067 0.9749
4.7003 3.7873 -2.0065 0.9749
3.0774 5.1891 -2.0054 0.9749
2.1057 5.6512 -2.0047 0.9749
1.5929 5.8153 -2.0043 0.9749
1.0676 5.9330 -2.0038 0.9749
-1.5975 5.8055 -2.0015 0.9749
-3.9436 4.5411 -1.9992 0.9750
-4.6858 3.7666 -1.9984 0.9750
-5.2786 2.8731 -1.9977 0.9750
-5.9470 0.8453 -1.9967 0.9750
-5.9575 -0.7592 -1.9963 0.9750
-5.8660 -1.2875 -1.9963 0.9750
-5.7278 -1.8056 -1.9963 0.9750
-4.7358 -3.6954 -1.9968 0.9750
-4.0047 -4.4791 -1.9972 0.9750
-3.1461 -5.1209 -1.9978 0.9750
-2.1870 -5.6004 -1.9985 0.9750
-1.6791 -5.7744 -1.9989 0.9750
-1.1576 -5.9024 -1.9993 0.9750
-0.6267 -5.9834 -1.9998 0.9750
0.4466 -6.0023 -2.0007 0.9749
3.4536 -4.9398 -2.0035 0.9749
3.8813 -4.6130 -2.0040 0.9749
4.6411 -3.8516 -2.0048 0.9749
5.2535 -2.9668 -2.0055 0.9749
5.4980 -2.4867 -2.0058 0.9749
5.6987 -1.9867 -2.0061 0.9749
5.8539 -1.4707 -2.0063 0.9749
5.9624 -0.9428 -2.0065 0.9749
6.0232 -0.4073 -2.0067 0.9749
6.0359 0.1316 -2.0068 0.9749
6.0004 0.6695 -2.0069 0.9749
5.7861 1.7250 -2.0070 0.9749
5.6090 2.2342 -2.0069 0.9749
4.4723 4.0534 -2.0064 0.9749
4.0924 4.4356 -2.0061 0.9749
3.6800 4.7823 -2.0058 0.9749
3.2382 5.0907 -2.0055 0.9749
2.7708 5.3583 -2.0052 0.9749
1.7740 5.7631 -2.0044 0.9749
0.7214 5.9841 -2.0035 0.9749
0.1848 6.0232 -2.0031 0.9749
-0.3531 6.0143 -2.0026 0.9749
-1.9314 5.7021 -2.0012 0.9749
-2.4317 5.5058 -2.0007 0.9749
-2.9125 5.2658 -2.0003 0.9750
-3.3698 4.9839 -1.9998 0.9750
-3.8000 4.6624 -1.9994 0.9750
-4.1999 4.3040 -1.9989 0.9750
-4.5661 3.9114 -1.9985 0.9750
-4.8958 3.4879 -1.9982 0.9750
-5.4359 2.5617 -1.9975 0.9750
-5.6419 2.0663 -1.9972 0.9750
-5.8030 1.5547 -1.9970 0.9750
-5.9179 1.0308 -1.9968 0.9750
-5.9857 0.4988 -1.9966 0.9750
-6.0060 -0.0371 -1.9965 0.9750
-5.9784 -0.5726 -1.9964 0.9750
-5.9034 -1.1036 -1.9963 0.9750
-5.6135 -2.1349 -1.9963 0.9750
-4.5137 -3.9643 -1.9969 0.9750
-3.3044 -5.0198 -1.9977 0.9750
-2.3608 -5.5290 -1.9984 0.9750
-1.8586 -5.7187 -1.9988 0.9750
0.2588 -6.0128 -2.0005 0.9750
0.7943 -5.9672 -2.0010 0.9749
1.8428 -5.7338 -2.0020 0.9749
2.3474 -5.5479 -2.0024 0.9749
4.5182 -3.9945 -2.0046 0.9749
4.8574 -3.5762 -2.0050 0.9749
5.1579 -3.1293 -2.0054 0.9749
5.4173 -2.6572 -2.0057 0.9749
6.0369 -0.0571 -2.0068 0.9749
6.0183 0.4817 -2.0069 0.9749
5.2197 3.0333 -2.0068 0.9749
4.9280 3.4866 -2.0066 0.9749
4.5969 3.9119 -2.0064 0.9749
3.8278 4.6652 -2.0059 0.9749
3.3959 4.9873 -2.0056 0.9749
2.9370 5.2694 -2.0053 0.9749
1.4363 5.8556 -2.0041 0.9749
0.3729 6.0150 -2.0032 0.9749
-0.1650 6.0229 -2.0028 0.9749
-2.2587 5.5796 -2.0009 0.9749
-2.7467 5.3546 -2.0004 0.9750
-3.2126 5.0871 -2.0000 0.9750
-3.6528 4.7792 -1.9995 0.9750
-4.0636 4.4334 -1.9991 0.9750
-4.4419 4.0525 -1.9987 0.9750
-5.0894 3.1976 -1.9979 0.9750
-5.3535 2.7304 -1.9976 0.9750
-5.5748 2.2417 -1.9973 0.9750
-5.8830 1.2152 -1.9968 0.9750
-6.0043 0.1506 -1.9965 0.9750
-5.9350 -0.9186 -1.9963 0.9750
-5.6774 -1.9585 -1.9963 0.9750
-5.2395 -2.9363 -1.9965 0.9750
-4.6352 -3.8211 -1.9968 0.9750
-3.4595 -4.9138 -1.9976 0.9750
-0.9990 -5.9316 -1.9995 0.9750
-0.4661 -5.9984 -1.9999 0.9750
0.0708 -6.0175 -2.0004 0.9750
1.6626 -5.7881 -2.0018 0.9749
2.6658 -5.4032 -2.0027 0.9749
3.5850 -4.8458 -2.0037 0.9749
4.0038 -4.5076 -2.0041 0.9749
5.3314 -2.8250 -2.0056 0.9749
5.8914 -1.3133 -2.0064 0.9749
5.9857 -0.7826 -2.0066 0.9749
6.0321 -0.2457 -2.0068 0.9749
6.0303 0.2934 -2.0069 0.9749
5.8825 1.3602 -2.0070 0.9749
5.5471 2.3837 -2.0069 0.9749
5.3121 2.8688 -2.0068 0.9749
5.0347 3.3310 -2.0067 0.9749
3.5503 4.8790 -2.0057 0.9749
3.1005 5.1754 -2.0054 0.9749
2.6260 5.4304 -2.0051 0.9749
1.6188 5.8083 -2.0043 0.9749
1.0940 5.9282 -2.0039 0.9749
0.5607 6.0009 -2.0034 0.9749
-0.5142 6.0022 -2.0025 0.9749
-1.0472 5.9310 -2.0020 0.9749
-2.0834 5.6479 -2.0011 0.9749
-2.5782 5.4383 -2.0006 0.9749
-3.5019 4.8914 -1.9997 0.9750
-3.9234 4.5586 -1.9992 0.9750
-5.9432 0.8718 -1.9967 0.9750
-5.9968 0.3382 -1.9965 0.9750
-6.0027 -0.1981 -1.9964 0.9750
-5.9609 -0.7327 -1.9963 0.9750
-5.8717 -1.2614 -1.9963 0.9750
-5.0605 -3.2355 -1.9966 0.9750
-4.4059 -4.0840 -1.9969 0.9750
-4.0246 -4.4612 -1.9972 0.9750
-3.6111 -4.8031 -1.9975 0.9750
-1.1838 -5.8971 -1.9993 0.9750
-0.6532 -5.9805 -1.9998 0.9750
-0.1172 -6.0163 -2.0002 0.9750
0.4199 -6.0041 -2.0007 0.9749
1.4808 -5.8368 -2.0016 0.9749
1.9960 -5.6828 -2.0021 0.9749
3.8607 -4.6302 -2.0039 0.9749
4.6239 -3.8722 -2.0048 0.9749
4.9518 -3.4450 -2.0051 0.9749
5.2402 -2.9901 -2.0055 0.9749
5.9581 -0.9693 -2.0065 0.9749
5.9221 1.1757 -2.0070 0.9749
5.7937 1.6993 -2.0070 0.9749
5.6189 2.2092 -2.0069 0.9749
5.3993 2.7015 -2.0069 0.9749
4.8326 3.6173 -2.0066 0.9749
4.1121 4.4174 -2.0061 0.9749
2.7946 5.3460 -2.0052 0.9749
2.3062 5.5729 -2.0048 0.9749
1.2788 5.8916 -2.0040 0.9749
0.7480 5.9809 -2.0036 0.9749
0.2115 6.0224 -2.0031 0.9749
-0.8615 5.9614 -2.0022 0.9749
-1.3894 5.8594 -2.0017 0.9749
-1.9060 5.7107 -2.0012 0.9749
-2.4073 5.5167 -2.0008 0.9749
-3.3476 4.9989 -1.9998 0.9750
-3.7793 4.6793 -1.9994 0.9750
-4.5487 3.9318 -1.9986 0.9750
-5.4245 2.5858 -1.9975 0.9750
-5.6327 2.0914 -1.9972 0.9750
-5.7961 1.5805 -1.9970 0.9750
-5.9835 0.5254 -1.9966 0.9750
-6.0061 -0.0104 -1.9965 0.9750
-5.9809 -0.5461 -1.9964 0.9750
-5.9082 -1.0773 -1.9963 0.9750
-5.7886 -1.6000 -1.9963 0.9750
-5.6229 -2.1100 -1.9963 0.9750
-5.4125 -2.6032 -1.9964 0.9750
-4.8645 -3.5239 -1.9967 0.9750
-4.5312 -3.9441 -1.9969 0.9750
-4.1618 -4.3331 -1.9971 0.9750
-3.7593 -4.6877 -1.9974 0.9750
-2.8675 -5.2827 -1.9980 0.9750
-1.3674 -5.8568 -1.9992 0.9750
-0.3051 -6.0092 -2.0001 0.9750
0.2321 -6.0138 -2.0005 0.9750
0.7678 -5.9706 -2.0010 0.9749
1.2976 -5.8797 -2.0015 0.9749
1.8173 -5.7419 -2.0019 0.9749
2.3227 -5.5582 -2.0024 0.9749
3.2748 -5.0595 -2.0033 0.9749
4.1235 -4.3990 -2.0042 0.9749
4.8414 -3.5978 -2.0050 0.9749
5.1439 -3.1521 -2.0054 0.9749
5.4054 -2.6812 -2.0057 0.9749
5.6239 -2.1887 -2.0060 0.9749
5.7974 -1.6786 -2.0062 0.9749
6.0046 -0.6219 -2.0067 0.9749
6.0366 -0.0839 -2.0068 0.9749
5.9560 0.9901 -2.0070 0.9749
5.8440 1.5174 -2.0070 0.9749
5.6852 2.0326 -2.0070 0.9749
5.2332 3.0101 -2.0068 0.9749
4.6143 3.8914 -2.0064 0.9749
4.2483 4.2870 -2.0062 0.9749
3.8485 4.6482 -2.0059 0.9749
2.9605 5.2564 -2.0053 0.9749
2.4794 5.4985 -2.0049 0.9749
0.3997 6.0133 -2.0033 0.9749
-0.1383 6.0236 -2.0028 0.9749
-0.6748 5.9859 -2.0023 0.9749
-1.2057 5.9004 -2.0019 0.9749
-2.2339 5.5896 -2.0009 0.9749
-3.1900 5.1014 -2.0000 0.9750
-3.6315 4.7955 -1.9995 0.9750
-4.4239 4.0722 -1.9987 0.9750
-4.7686 3.6607 -1.9983 0.9750
-5.3413 2.7542 -1.9976 0.9750
-5.7441 1.7609 -1.9971 0.9750
-5.8776 1.2414 -1.9968 0.9750
-5.9643 0.7121 -1.9966 0.9750
-6.0036 0.1773 -1.9965 0.9750
-5.9952 -0.3589 -1.9964 0.9750
-5.9390 -0.8922 -1.9963 0.9750
-5.8357 -1.4183 -1.9963 0.9750
-5.6860 -1.9332 -1.9963 0.9750
-5.4911 -2.4327 -1.9964 0.9750
-5.2525 -2.9130 -1.9965 0.9750
-4.9721 -3.3701 -1.9966 0.9750
-4.6521 -3.8005 -1.9968 0.9750
-3.9037 -4.5677 -1.9973 0.9750
-3.0310 -5.1902 -1.9979 0.9750
-1.0254 -5.9271 -1.9995 0.9750
-0.4927 -5.9962 -1.9999 0.9750
0.0441 -6.0177 -2.0004 0.9750
0.5808 -5.9911 -2.0008 0.9749
1.1131 -5.9169 -2.0013 0.9749
1.6368 -5.7954 -2.0018 0.9749
3.1149 -5.1589 -2.0032 0.9749
4.7263 -3.7471 -2.0049 0.9749
5.0426 -3.3112 -2.0052 0.9749
5.3187 -2.8487 -2.0056 0.9749
6.0315 0.2666 -2.0069 0.9749
5.8885 1.3341 -2.0070 0.9749
5.7460 1.8540 -2.0070 0.9749
5.5576 2.3590 -2.0069 0.9749
5.0495 3.3086 -2.0067 0.9749
3.5719 4.8632 -2.0058 0.9749
3.1235 5.1616 -2.0054 0.9749
2.6502 5.4187 -2.0051 0.9749
1.6446 5.8011 -2.0043 0.9749
0.0500 6.0255 -2.0030 0.9749
-0.4875 6.0045 -2.0025 0.9749
-1.0209 5.9357 -2.0020 0.9749
-2.0583 5.6572 -2.0011 0.9749
-3.0293 5.1990 -2.0001 0.9750
-3.4802 4.9070 -1.9997 0.9750
-4.2948 4.2088 -1.9988 0.9750
-4.6522 3.8082 -1.9984 0.9750
-5.6865 1.9396 -1.9972 0.9750
-5.8361 1.4245 -1.9969 0.9750
-5.9641 -0.7062 -1.9963 0.9750
-5.7436 -1.7546 -1.9963 0.9750
-5.0748 -3.2130 -1.9966 0.9750
-4.7684 -3.6531 -1.9967 0.9750
-4.4240 -4.0643 -1.9969 0.9750
-3.1915 -5.0927 -1.9978 0.9750
-2.2367 -5.5807 -1.9985 0.9750
-1.7303 -5.7591 -1.9989 0.9750
-1.2100 -5.8917 -1.9993 0.9750
-0.6798 -5.9774 -1.9997 0.9750
-0.1440 -6.0156 -2.0002 0.9750
0.3932 -6.0059 -2.0007 0.9749
2.4710 -5.4944 -2.0026 0.9749
2.9519 -5.2533 -2.0030 0.9749
3.4095 -4.9702 -2.0035 0.9749
3.8401 -4.6473 -2.0039 0.9749
4.2402 -4.2871 -2.0043 0.9749
4.6066 -3.8926 -2.0047 0.9749
5.4756 -2.5355 -2.0058 0.9749
5.6807 -2.0373 -2.0061 0.9749
6.0368 0.0779 -2.0068 0.9749
5.9273 1.1494 -2.0070 0.9749
5.8012 1.6735 -2.0070 0.9749
5.1505 3.1492 -2.0067 0.9749
3.7224 4.7495 -2.0059 0.9749
2.8184 5.3336 -2.0052 0.9749
2.3310 5.5626 -2.0048 0.9749
1.8252 5.7472 -2.0044 0.9749
0.7746 5.9775 -2.0036 0.9749
-1.8807 5.7192 -2.0012 0.9749
-3.7585 4.6961 -1.9994 0.9750
-4.1615 4.3412 -1.9990 0.9750
-4.5312 3.9520 -1.9986 0.9750
-5.7890 1.6062 -1.9970 0.9750
-5.9833 -0.5194 -1.9964 0.9750
-5.6322 -2.0849 -1.9963 0.9750
-4.8801 -3.5022 -1.9967 0.9750
-4.5487 -3.9239 -1.9969 0.9750
-3.7800 -4.6709 -1.9974 0.9750
-2.8909 -5.2698 -1.9980 0.9750
-2.4098 -5.5077 -1.9984 0.9750
-1.9093 -5.7018 -1.9987 0.9750
-1.3934 -5.8506 -1.9992 0.9750
-0.8662 -5.9528 -1.9996 0.9750
-0.3319 -6.0077 -2.0000 0.9750
0.2054 -6.0147 -2.0005 0.9750
1.2714 -5.8853 -2.0014 0.9749
1.7917 -5.7498 -2.0019 0.9749
2.2979 -5.5684 -2.0024 0.9749
2.7861 -5.3425 -2.0029 0.9749
3.2523 -5.0739 -2.0033 0.9749
4.1038 -4.4173 -2.0042 0.9749
4.4824 -4.0344 -2.0046 0.9749
4.8253 -3.6192 -2.0050 0.9749
5.3934 -2.7052 -2.0057 0.9749
5.7899 -1.7043 -2.0062 0.9749
5.9195 -1.1813 -2.0065 0.9749
6.0018 -0.6486 -2.0066 0.9749
6.0223 0.4281 -2.0069 0.9749
5.9603 0.9636 -2.0070 0.9749
5.6942 2.0073 -2.0070 0.9749
5.2465 2.9868 -2.0068 0.9749
4.2674 4.2681 -2.0062 0.9749
3.8692 4.6311 -2.0060 0.9749
3.4402 4.9570 -2.0057 0.9749
2.5038 5.4874 -2.0050 0.9749
2.0040 5.6878 -2.0046 0.9749
1.4884 5.8427 -2.0042 0.9749
0.9611 5.9509 -2.0037 0.9749
0.4264 6.0116 -2.0033 0.9749
-1.1795 5.9058 -2.0019 0.9749
-1.7012 5.7757 -2.0014 0.9749
-3.6102 4.8116 -1.9996 0.9750
-4.0241 4.4695 -1.9991 0.9750
-5.3291 2.7780 -1.9976 0.9750
-5.7362 1.7864 -1.9971 0.9750
-5.8720 1.2675 -1.9968 0.9750
-5.9611 0.7386 -1.9967 0.9750
-5.9430 -0.8658 -1.9963 0.9750
-5.8420 -1.3924 -1.9963 0.9750
-5.6945 -1.9079 -1.9963 0.9750
-4.9870 -3.3479 -1.9966 0.9750
-4.3136 -4.1816 -1.9970 0.9750
-3.9240 -4.5502 -1.9973 0.9750
-3.5030 -4.8828 -1.9976 0.9750
-3.0540 -5.1766 -1.9979 0.9750
-2.0864 -5.6390 -1.9986 0.9750
1.0868 -5.9217 -2.0013 0.9749
2.1226 -5.6371 -2.0022 0.9749
3.0919 -5.1726 -2.0032 0.9749
5.0278 -3.3335 -2.0052 0.9749
5.3059 -2.8723 -2.0056 0.9749
5.5418 -2.3879 -2.0059 0.9749
5.9784 -0.8358 -2.0066 0.9749
6.0326 0.2397 -2.0069 0.9749
5.9874 0.7769 -2.0069 0.9749
5.8944 1.3079 -2.0070 0.9749
5.5681 2.3343 -2.0069 0.9749
5.0641 3.2861 -2.0067 0.9749
4.7504 3.7244 -2.0065 0.9749
4.0122 4.5081 -2.0061 0.9749
1.6704 5.7937 -2.0043 0.9749
-2.0332 5.6663 -2.0011 0.9749
-2.5299 5.4611 -2.0006 0.9749
-3.0062 5.2125 -2.0002 0.9750
-3.4583 4.9225 -1.9997 0.9750
-4.9574 3.3995 -1.9981 0.9750
-5.4807 2.4638 -1.9974 0.9750
-5.8298 1.4504 -1.9969 0.9750
-5.9936 0.3915 -1.9966 0.9750
-6.0043 -0.1447 -1.9964 0.9750
-5.9672 -0.6796 -1.9963 0.9750
-5.7513 -1.7290 -1.9963 0.9750
-5.5743 -2.2352 -1.9963 0.9750
-5.3530 -2.7236 -1.9964 0.9750
-4.7846 -3.6319 -1.9967 0.9750
-4.0640 -4.4252 -1.9972 0.9750
-3.6537 -4.7707 -1.9974 0.9750
-2.2614 -5.5706 -1.9985 0.9750
-1.7559 -5.7513 -1.9989 0.9750
-1.2362 -5.8862 -1.9993 0.9750
-0.7064 -5.9743 -1.9997 0.9750
0.3665 -6.0075 -2.0006 0.9749
0.9011 -5.9523 -2.0011 0.9749
1.4288 -5.8496 -2.0016 0.9749
1.9453 -5.7002 -2.0021 0.9749
2.4465 -5.5052 -2.0025 0.9749
2.9285 -5.2663 -2.0030 0.9749
3.8193 -4.6642 -2.0039 0.9749
4.2210 -4.3059 -2.0043 0.9749
4.5892 -3.9131 -2.0047 0.9749
4.9208 -3.4888 -2.0051 0.9749
5.4643 -2.5598 -2.0058 0.9749
5.6716 -2.0625 -2.0061 0.9749
5.8337 -1.5486 -2.0063 0.9749
6.0172 -0.4876 -2.0067 0.9749
6.0371 0.0511 -2.0068 0.9749
6.0087 0.5894 -2.0069 0.9749
5.6383 2.1592 -2.0069 0.9749
5.4231 2.6534 -2.0069 0.9749
5.1645 3.1264 -2.0067 0.9749
4.1513 4.3807 -2.0061 0.9749
3.3059 5.0471 -2.0056 0.9749
2.3557 5.5523 -2.0049 0.9749
1.8507 5.7392 -2.0045 0.9749
0.2651 6.0204 -2.0032 0.9749
-0.2729 6.0187 -2.0027 0.9749
-0.8084 5.9689 -2.0022 0.9749
-2.3581 5.5380 -2.0008 0.9749
-3.7376 4.7128 -1.9994 0.9750
-4.5136 3.9721 -1.9986 0.9750
-4.8490 3.5530 -1.9982 0.9750
-5.6139 2.1414 -1.9973 0.9750
-5.9037 1.1096 -1.9968 0.9750
-5.9786 0.5785 -1.9966 0.9750
-6.0060 0.0430 -1.9965 0.9750
-5.9176 -1.0247 -1.9963 0.9750
-5.6414 -2.0599 -1.9963 0.9750
-5.4354 -2.5550 -1.9964 0.9750
-4.2002 -4.2958 -1.9971 0.9750
-2.9143 -5.2569 -1.9980 0.9750
-1.9346 -5.6932 -1.9987 0.9750
-1.4194 -5.8443 -1.9991 0.9750
-0.3586 -6.0061 -2.0000 0.9750
0.1786 -6.0155 -2.0005 0.9750
0.7146 -5.9770 -2.0009 0.9749
1.7661 -5.7577 -2.0019 0.9749
2.7623 -5.3548 -2.0028 0.9749
3.6714 -4.7810 -2.0037 0.9749
5.7822 -1.7301 -2.0062 0.9749
5.9988 -0.6753 -2.0066 0.9749
6.0241 0.4013 -2.0069 0.9749
4.6488 3.8503 -2.0065 0.9749
4.2863 4.2491 -2.0062 0.9749
2.8087 -4.8460 -2.0030 0.9765
4.3295 -3.5606 -2.0046 0.9765
4.6306 -3.1608 -2.0049 0.9765
5.5451 -0.8516 -2.0062 0.9764
5.5994 -0.3536 -2.0064 0.9764
5.5736 0.6470 -2.0066 0.9764
5.3701 1.6270 -2.0066 0.9764
4.9953 2.5551 -2.0065 0.9764
4.4612 3.4016 -2.0062 0.9764
4.1396 3.7856 -2.0060 0.9765
3.4003 4.4598 -2.0055 0.9765
2.5530 4.9914 -2.0049 0.9765
1.6249 5.3637 -2.0042 0.9765
0.1468 5.5991 -2.0030 0.9765
-1.3398 5.4346 -2.0017 0.9765
-2.7290 4.8828 -2.0003 0.9765
-3.1530 4.6189 -1.9999 0.9765
-3.9220 3.9836 -1.9991 0.9765
-4.2608 3.6172 -1.9987 0.9765
-4.5657 3.2222 -1.9984 0.9765
-5.3682 -1.5353 -1.9967 0.9766
-5.0103 -2.4648 -1.9968 0.9766
-3.8332 -4.0627 -1.9974 0.9766
-3.4560 -4.3889 -1.9977 0.9765
-2.6220 -4.9346 -1.9983 0.9765
-2.1718 -5.1497 -1.9986 0.9765
-1.7041 -5.3239 -1.9990 0.9765
-1.2227 -5.4557 -1.9994 0.9765
-0.7314 -5.5441 -1.9998 0.9765
-0.2340 -5.5884 -2.0002 0.9765
0.2655 -5.5882 -2.0006 0.9765
0.7630 -5.5435 -2.0011 0.9765
1.7366 -5.3221 -2.0020 0.9765
2.2048 -5.1471 -2.0024 0.9765
2.6557 -4.9310 -2.0028 0.9765
3.0856 -4.6755 -2.0033 0.9765
3.4911 -4.3825 -2.0037 0.9765
4.2158 -3.6939 -2.0045 0.9765
4.8067 -2.8871 -2.0051 0.9765
5.0458 -2.4472 -2.0054 0.9765
5.2447 -1.9876 -2.0057 0.9765
5.4017 -1.5121 -2.0059 0.9765
5.5156 -1.0244 -2.0061 0.9765
5.5855 -0.5284 -2.0063 0.9764
5.6107 -0.0281 -2.0064 0.9764
5.5911 0.4725 -2.0065 0.9764
5.5268 0.9693 -2.0066 0.9764
5.4183 1.4584 -2.0066 0.9764
5.2666 1.9359 -2.0066 0.9764
4.8384 2.8406 -2.0064 0.9764
4.5654 3.2606 -2.0063 0.9764
3.9127 4.0191 -2.0059 0.9765
3.5382 4.3515 -2.0056 0.9765
2.2588 5.1306 -2.0047 0.9765
1.7919 5.3106 -2.0043 0.9765
1.3108 5.4483 -2.0039 0.9765
0.3218 5.5922 -2.0031 0.9765
-0.6767 5.5580 -2.0022 0.9765
-1.1695 5.4743 -2.0018 0.9765
-2.5753 4.9660 -2.0005 0.9765
-3.0074 4.7155 -2.0001 0.9765
-4.1460 3.7489 -1.9989 0.9765
-4.4631 3.3635 -1.9985 0.9765
-5.3544 1.5895 -1.9974 0.9766
-5.5827 0.1152 -1.9968 0.9766
-5.5705 -0.3832 -1.9968 0.9766
-5.5139 -0.8785 -1.9967 0.9766
-5.2701 -1.8442 -1.9967 0.9766
-4.8590 -2.7515 -1.9968 0.9766
-4.5945 -3.1741 -1.9970 0.9766
-4.2934 -3.5716 -1.9972 0.9766
-3.9581 -3.9407 -1.9974 0.9766
-2.7748 -4.8500 -1.9982 0.9765
-1.8695 -5.2677 -1.9989 0.9765
-0.9042 -5.5182 -1.9997 0.9765
-0.4085 -5.5780 -2.0001 0.9765
0.0907 -5.5934 -2.0005 0.9765
0.5894 -5.5642 -2.0009 0.9765
3.3522 -4.4891 -2.0035 0.9765
3.7400 -4.1731 -2.0039 0.9765
4.4236 -3.4434 -2.0047 0.9765
4.7139 -3.0357 -2.0050 0.9765
4.9666 -2.6035 -2.0053 0.9765
5.1798 -2.1505 -2.0056 0.9765
5.4807 -1.1962 -2.0061 0.9765
5.6069 -0.2034 -2.0064 0.9764
5.3245 1.7704 -2.0066 0.9764
4.6652 3.1164 -2.0063 0.9764
4.3683 3.5198 -2.0061 0.9765
3.6726 4.2390 -2.0057 0.9765
3.2794 4.5491 -2.0054 0.9765
2.8601 4.8227 -2.0051 0.9765
2.4182 5.0578 -2.0048 0.9765
1.9571 5.2524 -2.0044 0.9765
1.4805 5.4050 -2.0041 0.9765
0.9923 5.5144 -2.0037 0.9765
-0.0033 5.6006 -2.0028 0.9765
-0.5027 5.5768 -2.0024 0.9765
-0.9979 5.5086 -2.0020 0.9765
-1.4849 5.3964 -2.0015 0.9765
-1.9599 5.2413 -2.0011 0.9765
-2.4191 5.0445 -2.0006 0.9765
-3.6660 4.2214 -1.9994 0.9765
-4.0271 3.8768 -1.9990 0.9765
-4.3560 3.5016 -1.9986 0.9765
-5.1252 2.2223 -1.9977 0.9765
-5.3023 1.7561 -1.9974 0.9766
-5.4372 1.2760 -1.9972 0.9766
-5.5289 0.7859 -1.9970 0.9766
-5.5765 0.2896 -1.9969 0.9766
-5.5387 -0.7058 -1.9967 0.9766
-5.3251 -1.6787 -1.9967 0.9766
-5.1543 -2.1470 -1.9967 0.9766
-4.4028 -3.4356 -1.9971 0.9766
-3.7231 -4.1641 -1.9975 0.9766
-3.3373 -4.4802 -1.9978 0.9765
-2.0331 -5.2064 -1.9987 0.9765
-1.5609 -5.3679 -1.9991 0.9765
-1.0761 -5.4868 -1.9995 0.9765
-0.5825 -5.5621 -1.9999 0.9765
-0.0841 -5.5930 -2.0003 0.9765
0.9114 -5.5214 -2.0012 0.9765
1.4005 -5.4193 -2.0017 0.9765
2.3422 -5.0865 -2.0025 0.9765
3.2100 -4.5914 -2.0034 0.9765
3.6075 -4.2876 -2.0038 0.9765
5.1098 -2.3112 -2.0055 0.9765
5.2963 -1.8464 -2.0058 0.9765
5.4405 -1.3668 -2.0060 0.9765
5.5412 -0.8762 -2.0062 0.9764
5.5977 -0.3785 -2.0064 0.9764
5.5765 0.6222 -2.0066 0.9764
5.2128 2.0763 -2.0066 0.9764
5.0066 2.5329 -2.0065 0.9764
4.7604 2.9692 -2.0064 0.9764
4.4763 3.3817 -2.0062 0.9764
4.1564 3.7671 -2.0060 0.9765
3.4201 4.4446 -2.0055 0.9765
3.0096 4.7313 -2.0052 0.9765
2.5752 4.9801 -2.0049 0.9765
1.6488 5.3565 -2.0042 0.9765
-0.8254 5.5375 -2.0021 0.9765
-1.7953 5.3004 -2.0012 0.9765
-2.2604 5.1180 -2.0008 0.9765
-2.7073 4.8949 -2.0004 0.9765
-3.1325 4.6329 -1.9999 0.9765
-4.2448 3.6362 -1.9988 0.9765
-4.5514 3.2425 -1.9984 0.9765
-5.3949 1.4453 -1.9973 0.9766
-5.5581 -0.5324 -1.9967 0.9766
-5.4884 -1.0260 -1.9967 0.9766
-5.2188 -1.9849 -1.9967 0.9766
-4.7835 -2.8808 -1.9969 0.9766
-4.1963 -3.6855 -1.9972 0.9766
-3.8512 -4.0455 -1.9974 0.9766
-3.4755 -4.3735 -1.9977 0.9765
-3.0720 -4.6667 -1.9980 0.9765
-2.6439 -4.9229 -1.9983 0.9765
-1.2469 -5.4501 -1.9994 0.9765
0.2406 -5.5893 -2.0006 0.9765
0.7383 -5.5468 -2.0011 0.9765
2.1819 -5.1568 -2.0024 0.9765
3.8507 -4.0716 -2.0041 0.9765
4.1993 -3.7126 -2.0044 0.9765
4.5145 -3.3238 -2.0048 0.9765
4.7938 -2.9084 -2.0051 0.9765
5.3949 -1.5361 -2.0059 0.9765
5.5310 0.9447 -2.0066 0.9764
5.4248 1.4343 -2.0066 0.9764
5.2751 1.9125 -2.0066 0.9764
3.9305 4.0017 -2.0059 0.9765
3.1561 4.6352 -2.0053 0.9765
1.8155 5.3027 -2.0043 0.9765
1.3350 5.4424 -2.0040 0.9765
0.8441 5.5387 -2.0036 0.9765
-0.1534 5.5982 -2.0027 0.9765
-0.6520 5.5610 -2.0023 0.9765
-1.6289 5.3543 -2.0014 0.9765
-2.5533 4.9775 -2.0005 0.9765
-2.9864 4.7289 -2.0001 0.9765
-3.7776 4.1214 -1.9993 0.9765
-4.1293 3.7673 -1.9989 0.9765
-4.4481 3.3833 -1.9985 0.9765
-4.7314 2.9726 -1.9982 0.9765
-4.9769 2.5384 -1.9979 0.9765
-5.4693 1.1298 -1.9972 0.9766
-5.5478 0.6374 -1.9970 0.9766
-5.5721 -0.3584 -1.9968 0.9766
-5.5178 -0.8540 -1.9967 0.9766
-5.2782 -1.8208 -1.9967 0.9766
-5.0949 -2.2844 -1.9967 0.9766
-4.8711 -2.7299 -1.9968 0.9766
-4.6085 -3.1537 -1.9970 0.9766
-3.9756 -3.9231 -1.9974 0.9766
-3.6103 -4.2625 -1.9976 0.9765
-2.7963 -4.8376 -1.9982 0.9765
-1.8929 -5.2592 -1.9989 0.9765
-0.9287 -5.5140 -1.9996 0.9765
-0.4333 -5.5761 -2.0000 0.9765
0.0658 -5.5937 -2.0005 0.9765
0.5646 -5.5667 -2.0009 0.9765
2.0196 -5.2221 -2.0022 0.9765
3.3322 -4.5039 -2.0035 0.9765
3.7213 -4.1896 -2.0039 0.9765
4.7003 -3.0566 -2.0050 0.9765
4.9550 -2.6256 -2.0053 0.9765
5.1701 -2.1734 -2.0056 0.9765
5.3440 -1.7038 -2.0059 0.9765
5.4753 -1.2205 -2.0061 0.9765
5.6043 0.2726 -2.0065 0.9764
5.4669 1.2641 -2.0066 0.9764
5.3324 1.7467 -2.0066 0.9764
5.1552 2.2153 -2.0065 0.9764
4.9368 2.6662 -2.0064 0.9764
4.6790 3.0957 -2.0063 0.9764
4.0538 3.8771 -2.0060 0.9765
3.6914 4.2227 -2.0057 0.9765
3.2996 4.5345 -2.0054 0.9765
2.8816 4.8100 -2.0051 0.9765
1.5045 5.3984 -2.0041 0.9765
1.0168 5.5100 -2.0037 0.9765
0.5212 5.5776 -2.0033 0.9765
-0.9734 5.5130 -2.0020 0.9765
-1.4609 5.4030 -2.0015 0.9765
-1.9366 5.2500 -2.0011 0.9765
-2.3966 5.0552 -2.0007 0.9765
-4.0098 3.8948 -1.9990 0.9765
-4.3405 3.5209 -1.9987 0.9765
-4.6364 3.1192 -1.9983 0.9765
-5.1153 2.2451 -1.9977 0.9765
-5.2945 1.7797 -1.9975 0.9766
-5.4315 1.3002 -1.9972 0.9766
-5.3325 -1.6550 -1.9967 0.9766
-5.1638 -2.1240 -1.9967 0.9766
-4.9540 -2.5763 -1.9968 0.9766
-2.0562 -5.1972 -1.9987 0.9765
-1.5847 -5.3609 -1.9991 0.9765
-0.6072 -5.5594 -1.9999 0.9765
-0.1090 -5.5926 -2.0003 0.9765
0.8868 -5.5253 -2.0012 0.9765
1.3764 -5.4254 -2.0016 0.9765
1.8553 -5.2822 -2.0021 0.9765
3.9587 -3.9671 -2.0042 0.9765
4.2975 -3.5989 -2.0045 0.9765
4.8702 -2.7790 -2.0052 0.9765
5.0994 -2.3338 -2.0055 0.9765
5.2880 -1.8699 -2.0058 0.9765
5.4343 -1.3910 -2.0060 0.9765
5.5960 -0.4034 -2.0064 0.9764
5.6100 0.0974 -2.0065 0.9764
5.2220 2.0531 -2.0066 0.9764
4.4913 3.3618 -2.0062 0.9764
4.1731 3.7486 -2.0060 0.9765
2.5973 4.9686 -2.0049 0.9765
2.1434 5.1796 -2.0046 0.9765
1.1886 5.4759 -2.0038 0.9765
0.1966 5.5977 -2.0030 0.9765
-1.2915 5.4464 -2.0017 0.9765
-1.7717 5.3084 -2.0013 0.9765
-2.2377 5.1280 -2.0008 0.9765
-2.6856 4.9069 -2.0004 0.9765
-3.1119 4.6469 -2.0000 0.9765
-3.5132 4.3499 -1.9995 0.9765
-3.8865 4.0184 -1.9992 0.9765
-4.2286 3.6551 -1.9988 0.9765
-4.5370 3.2627 -1.9984 0.9765
-5.0429 2.4039 -1.9978 0.9765
-5.2365 1.9443 -1.9975 0.9766
-5.3885 1.4693 -1.9973 0.9766
-5.5838 -0.0097 -1.9968 0.9766
-5.2276 -1.9616 -1.9967 0.9766
-3.8692 -4.0284 -1.9974 0.9766
-2.2175 -5.1301 -1.9986 0.9765
-0.2836 -5.5860 -2.0002 0.9765
0.7137 -5.5499 -2.0010 0.9765
1.2061 -5.4654 -2.0015 0.9765
1.6892 -5.3372 -2.0019 0.9765
2.6117 -4.9543 -2.0028 0.9765
3.0439 -4.7026 -2.0032 0.9765
3.8325 -4.0886 -2.0040 0.9765
4.1827 -3.7312 -2.0044 0.9765
4.4997 -3.3438 -2.0048 0.9765
4.7808 -2.9296 -2.0051 0.9765
5.2267 -2.0342 -2.0057 0.9765
5.5062 -1.0734 -2.0061 0.9765
5.5950 0.4228 -2.0065 0.9764
5.0939 2.3526 -2.0065 0.9764
4.8635 2.7975 -2.0064 0.9764
4.5943 3.2199 -2.0063 0.9764
3.9483 3.9842 -2.0059 0.9765
3.1767 4.6211 -2.0054 0.9765
2.3044 5.1104 -2.0047 0.9765
0.3715 5.5892 -2.0032 0.9765
-0.1285 5.5989 -2.0027 0.9765
-2.0765 5.1959 -2.0010 0.9765
-4.7181 2.9936 -1.9982 0.9765
-4.9656 2.5605 -1.9979 0.9765
-5.4643 1.1541 -1.9972 0.9766
-5.5450 0.6621 -1.9970 0.9766
-5.5815 0.1648 -1.9969 0.9766
-5.4255 -1.3186 -1.9967 0.9766
-4.3250 -3.5333 -1.9971 0.9766
-3.6292 -4.2464 -1.9976 0.9765
-3.2364 -4.5538 -1.9979 0.9765
-2.3765 -5.0580 -1.9985 0.9765
-1.9163 -5.2507 -1.9988 0.9765
-0.4580 -5.5740 -2.0000 0.9765
0.0410 -5.5938 -2.0004 0.9765
0.5399 -5.5691 -2.0009 0.9765
1.0347 -5.5000 -2.0013 0.9765
1.5214 -5.3869 -2.0018 0.9765
1.9963 -5.2309 -2.0022 0.9765
3.3121 -4.5187 -2.0035 0.9765
3.7026 -4.2061 -2.0039 0.9765
4.3927 -3.4826 -2.0046 0.9765
4.6866 -3.0774 -2.0050 0.9765
5.1604 -2.1964 -2.0056 0.9765
5.6049 -0.2532 -2.0064 0.9764
5.6054 0.2477 -2.0065 0.9764
5.4725 1.2398 -2.0066 0.9764
4.3994 3.4809 -2.0062 0.9765
4.0710 3.8590 -2.0060 0.9765
3.7102 4.2063 -2.0057 0.9765
3.3197 4.5198 -2.0055 0.9765
2.9029 4.7972 -2.0052 0.9765
1.0413 5.5055 -2.0037 0.9765
0.5460 5.5753 -2.0033 0.9765
0.0465 5.6006 -2.0029 0.9765
-1.4369 5.4095 -2.0016 0.9765
-2.8159 4.8329 -2.0003 0.9765
-3.6283 4.2539 -1.9994 0.9765
-4.3248 3.5402 -1.9987 0.9765
-5.1053 2.2678 -1.9977 0.9765
-5.2866 1.8032 -1.9975 0.9766
-5.5217 0.8350 -1.9971 0.9766
-5.5815 -0.1594 -1.9968 0.9766
-5.4640 -1.1484 -1.9967 0.9766
-5.1732 -2.1011 -1.9967 0.9766
-4.7180 -2.9871 -1.9969 0.9766
-4.4331 -3.3963 -1.9971 0.9766
-4.1129 -3.7785 -1.9973 0.9766
-3.7599 -4.1308 -1.9975 0.9766
-3.3769 -4.4502 -1.9978 0.9765
-2.0793 -5.1880 -1.9987 0.9765
-1.1248 -5.4769 -1.9995 0.9765
-0.6320 -5.5566 -1.9999 0.9765
0.3655 -5.5828 -2.0007 0.9765
0.8622 -5.5292 -2.0012 0.9765
1.3523 -5.4314 -2.0016 0.9765
2.2968 -5.1070 -2.0025 0.9765
2.7438 -4.8828 -2.0029 0.9765
4.8578 -2.8006 -2.0052 0.9765
5.0890 -2.3565 -2.0055 0.9765
5.5941 -0.4282 -2.0063 0.9764
5.2310 2.0299 -2.0066 0.9764
4.1898 3.7301 -2.0060 0.9765
3.4595 4.4141 -2.0056 0.9765
3.0516 4.7044 -2.0053 0.9765
2.6194 4.9571 -2.0050 0.9765
2.1665 5.1700 -2.0046 0.9765
1.6964 5.3417 -2.0042 0.9765
1.2129 5.4707 -2.0039 0.9765
0.2215 5.5968 -2.0030 0.9765
-1.7482 5.3162 -2.0013 0.9765
-2.6638 4.9189 -2.0004 0.9765
-4.7965 2.8660 -1.9981 0.9765
-5.0322 2.4264 -1.9978 0.9765
-5.3819 1.4933 -1.9973 0.9766
-5.5606 0.5132 -1.9970 0.9766
-5.5838 0.0152 -1.9968 0.9766
-5.4973 -0.9771 -1.9967 0.9766
-5.2362 -1.9383 -1.9967 0.9766
-5.0427 -2.3978 -1.9968 0.9766
-4.8089 -2.8381 -1.9969 0.9766
-4.5369 -3.2560 -1.9970 0.9766
-4.2288 -3.6480 -1.9972 0.9766
-3.5142 -4.3424 -1.9977 0.9765
-2.6875 -4.8991 -1.9983 0.9765
-2.2402 -5.1202 -1.9986 0.9765
-0.8052 -5.5337 -1.9997 0.9765
1.6654 -5.3446 -2.0019 0.9765
2.1359 -5.1759 -2.0023 0.9765
2.5896 -4.9658 -2.0028 0.9765
3.0229 -4.7160 -2.0032 0.9765
3.8143 -4.1056 -2.0040 0.9765
4.1661 -3.7497 -2.0044 0.9765
4.7677 -2.9508 -2.0051 0.9765
5.5014 -1.0978 -2.0061 0.9765
5.5392 0.8955 -2.0066 0.9764
5.2920 1.8655 -2.0066 0.9764
4.8759 2.7758 -2.0064 0.9764
3.9660 3.9666 -2.0059 0.9765
3.1973 4.6070 -2.0054 0.9765
2.3271 5.1001 -2.0047 0.9765
1.8626 5.2864 -2.0044 0.9765
1.3834 5.4304 -2.0040 0.9765
0.8933 5.5311 -2.0036 0.9765
-1.0964 5.4895 -2.0019 0.9765
-3.7408 4.1549 -1.9993 0.9765
-4.0958 3.8039 -1.9989 0.9765
-4.4179 3.4228 -1.9986 0.9765
-4.7048 3.0146 -1.9982 0.9765
-4.9542 2.5826 -1.9979 0.9765
-5.1641 2.1301 -1.9976 0.9765
-5.4591 1.1784 -1.9972 0.9766
-5.5751 -0.3089 -1.9968 0.9766
-5.4313 -1.2945 -1.9967 0.9766
-5.2942 -1.7738 -1.9967 0.9766
-4.3406 -3.5140 -1.9971 0.9766
-4.0103 -3.8875 -1.9973 0.9766
-3.6480 -4.2302 -1.9976 0.9765
-3.2566 -4.5393 -1.9978 0.9765
-2.8391 -4.8125 -1.9981 0.9765
-0.9777 -5.5055 -1.9996 0.9765
0.0161 -5.5939 -2.0004 0.9765
0.5151 -5.5714 -2.0009 0.9765
1.0102 -5.5044 -2.0013 0.9765
1.4975 -5.3936 -2.0017 0.9765
1.9730 -5.2397 -2.0022 0.9765
2.4330 -5.0439 -2.0026 0.9765
3.2919 -4.5333 -2.0035 0.9765
3.6839 -4.2225 -2.0039 0.9765
4.0466 -3.8778 -2.0043 0.9765
4.3771 -3.5021 -2.0046 0.9765
4.6728 -3.0982 -2.0050 0.9765
4.9313 -2.6695 -2.0053 0.9765
5.3286 -1.7513 -2.0058 0.9765
5.4642 -1.2692 -2.0061 0.9765
5.5561 -0.7768 -2.0062 0.9764
5.6037 -0.2782 -2.0064 0.9764
5.5645 0.7220 -2.0066 0.9764
5.4780 1.2155 -2.0066 0.9764
5.3477 1.6992 -2.0066 0.9764
5.1747 2.1694 -2.0065 0.9764
4.9604 2.6221 -2.0065 0.9764
4.7064 3.0540 -2.0063 0.9764
4.4149 3.4613 -2.0062 0.9765
4.0882 3.8409 -2.0060 0.9765
3.7289 4.1898 -2.0057 0.9765
1.5525 5.3849 -2.0041 0.9765
1.0658 5.5009 -2.0037 0.9765
0.0714 5.6004 -2.0029 0.9765
-0.9244 5.5216 -2.0020 0.9765
-1.4129 5.4159 -2.0016 0.9765
-1.8899 5.2671 -2.0011 0.9765
-2.7945 4.8454 -2.0003 0.9765
-3.9751 3.9303 -1.9991 0.9765
-4.8713 2.7362 -1.9980 0.9765
-5.2785 1.8267 -1.9975 0.9766
-5.5180 0.8596 -1.9971 0.9766
-5.5722 0.3639 -1.9969 0.9766
-5.5477 -0.6318 -1.9967 0.9766
-5.4691 -1.1241 -1.9967 0.9766
-5.3470 -1.6075 -1.9967 0.9766
-4.9766 -2.5321 -1.9968 0.9766
-4.7312 -2.9661 -1.9969 0.9766
-4.4482 -3.3765 -1.9971 0.9766
-3.3967 -4.4352 -1.9977 0.9765
-2.9880 -4.7211 -1.9980 0.9765
-2.5554 -4.9696 -1.9983 0.9765
-2.1023 -5.1786 -1.9987 0.9765
-1.1491 -5.4718 -1.9995 0.9765
-0.6566 -5.5537 -1.9999 0.9765
0.3407 -5.5843 -2.0007 0.9765
0.8377 -5.5329 -2.0011 0.9765
1.3281 -5.4373 -2.0016 0.9765
1.8082 -5.2984 -2.0020 0.9765
2.7220 -4.8949 -2.0029 0.9765
3.1484 -4.6336 -2.0033 0.9765
3.5499 -4.3352 -2.0037 0.9765
3.9232 -4.0021 -2.0041 0.9765
4.2653 -3.6369 -2.0045 0.9765
4.8453 -2.8221 -2.0052 0.9765
5.6106 0.0475 -2.0065 0.9764
5.5132 1.0437 -2.0066 0.9764
5.0400 2.4659 -2.0065 0.9764
4.2063 3.7114 -2.0060 0.9765
3.0725 4.6908 -2.0053 0.9765
2.6414 4.9454 -2.0050 0.9765
2.1894 5.1604 -2.0046 0.9765
1.7201 5.3342 -2.0043 0.9765
0.7447 5.5527 -2.0035 0.9765
0.2464 5.5958 -2.0031 0.9765
-0.7515 5.5482 -2.0022 0.9765
-1.2431 5.4578 -2.0017 0.9765
-1.7245 5.3240 -2.0013 0.9765
-3.4745 4.3810 -1.9996 0.9765
-3.8506 4.0529 -1.9992 0.9765
-5.3752 1.5172 -1.9973 0.9766
-5.4886 1.0316 -1.9971 0.9766
-5.5583 0.5379 -1.9970 0.9766
-5.5837 0.0400 -1.9968 0.9766
-5.5016 -0.9527 -1.9967 0.9766
-5.0533 -2.3753 -1.9968 0.9766
-4.8215 -2.8167 -1.9969 0.9766
-4.5514 -3.2358 -1.9970 0.9766
-4.2450 -3.6291 -1.9972 0.9766
-2.7093 -4.8871 -1.9982 0.9765
-1.3195 -5.4329 -1.9993 0.9765
-0.8298 -5.5300 -1.9997 0.9765
-0.3333 -5.5832 -2.0001 0.9765
0.1660 -5.5918 -2.0006 0.9765
1.1574 -5.4758 -2.0014 0.9765
2.1129 -5.1853 -2.0023 0.9765
2.5675 -4.9772 -2.0028 0.9765
3.4124 -4.4437 -2.0036 0.9765
4.7544 -2.9720 -2.0051 0.9765
5.3738 -1.6079 -2.0059 0.9765
5.5751 -0.6276 -2.0063 0.9764
5.6092 -0.1279 -2.0064 0.9764
5.5986 0.3730 -2.0065 0.9764
5.5431 0.8709 -2.0066 0.9764
5.4434 1.3619 -2.0066 0.9764
5.3002 1.8419 -2.0066 0.9764
5.1146 2.3073 -2.0065 0.9764
4.8882 2.7541 -2.0064 0.9764
4.3204 3.5783 -2.0061 0.9765
3.9836 3.9490 -2.0059 0.9765
3.2178 4.5928 -2.0054 0.9765
2.6209 -4.5219 -2.0029 0.9779
3.7266 -3.6687 -2.0040 0.9778
4.0397 -3.3223 -2.0044 0.9778
4.5671 -2.5525 -2.0050 0.9778
4.7773 -2.1352 -2.0053 0.9778
5.0818 -1.2527 -2.0057 0.9778
5.1737 -0.7945 -2.0059 0.9778
5.2243 -0.3299 -2.0060 0.9778
5.2332 0.1374 -2.0062 0.9778
5.2003 0.6036 -2.0062 0.9778
5.1258 1.0651 -2.0063 0.9778
4.6607 2.3840 -2.0062 0.9778
4.4292 2.7900 -2.0060 0.9778
3.8624 3.5320 -2.0057 0.9778
3.5316 3.8621 -2.0055 0.9778
2.7885 4.4270 -2.0050 0.9778
2.3821 4.6573 -2.0047 0.9778
1.9569 4.8505 -2.0044 0.9778
1.5162 5.0048 -2.0040 0.9778
1.0636 5.1192 -2.0036 0.9779
-1.2503 5.0714 -2.0016 0.9779
-1.6973 4.9387 -2.0012 0.9779
-2.5468 4.5567 -2.0004 0.9779
-3.3146 4.0301 -1.9996 0.9779
-3.9765 3.3758 -1.9989 0.9779
-4.2610 3.0072 -1.9986 0.9779
-4.9031 1.7711 -1.9978 0.9779
-5.1388 0.8716 -1.9974 0.9779
-5.1956 0.4097 -1.9972 0.9779
-5.2112 -0.0554 -1.9971 0.9779
-5.1853 -0.5199 -1.9971 0.9779
-4.8626 -1.8741 -1.9970 0.9779
-4.6762 -2.3005 -1.9971 0.9779
-4.4526 -2.7085 -1.9972 0.9779
-3.5776 -3.7917 -1.9977 0.9779
-2.8477 -4.3681 -1.9982 0.9779
-2.0268 -4.8060 -1.9988 0.9779
-1.5904 -4.9685 -1.9992 0.9779
0.2477 -5.2149 -2.0007 0.9779
0.7120 -5.1731 -2.0011 0.9779
1.1708 -5.0900 -2.0015 0.9779
1.6205 -4.9663 -2.0019 0.9779
2.0575 -4.8030 -2.0024 0.9779
2.8793 -4.3627 -2.0032 0.9779
3.2575 -4.0893 -2.0035 0.9779
3.6100 -3.7832 -2.0039 0.9778
3.9337 -3.4467 -2.0043 0.9778
4.2261 -3.0826 -2.0046 0.9778
4.4849 -2.6938 -2.0049 0.9778
5.2349 -0.0262 -2.0061 0.9778
5.0554 1.3608 -2.0063 0.9778
4.9138 1.8062 -2.0062 0.9778
4.7330 2.2372 -2.0062 0.9778
4.5143 2.6503 -2.0061 0.9778
4.2597 3.0422 -2.0059 0.9778
3.9710 3.4097 -2.0058 0.9778
3.3013 4.0602 -2.0053 0.9778
2.5266 4.5809 -2.0048 0.9778
1.6720 4.9553 -2.0041 0.9778
0.7646 5.1716 -2.0034 0.9779
-0.1664 5.2231 -2.0026 0.9779
-0.6314 5.1864 -2.0022 0.9779
-1.0913 5.1084 -2.0018 0.9779
-3.1872 4.1320 -1.9998 0.9779
-3.8693 3.4986 -1.9991 0.9779
-4.1652 3.1390 -1.9987 0.9779
-4.4279 2.7546 -1.9984 0.9779
-4.8456 1.9235 -1.9979 0.9779
-5.1804 0.5719 -1.9973 0.9779
-4.9187 -1.7213 -1.9970 0.9779
-4.2881 -2.9625 -1.9973 0.9779
-3.6942 -3.6779 -1.9977 0.9779
-3.3518 -3.9932 -1.9979 0.9779
-2.9826 -4.2768 -1.9981 0.9779
-2.1759 -4.7401 -1.9987 0.9779
-1.7447 -4.9161 -1.9991 0.9779
-0.3812 -5.2055 -2.0002 0.9779
0.5500 -5.1925 -2.0010 0.9779
1.4644 -5.0142 -2.0018 0.9779
2.7413 -4.4503 -2.0030 0.9779
3.8238 -3.5677 -2.0041 0.9778
4.1275 -3.2130 -2.0045 0.9778
4.3983 -2.8325 -2.0048 0.9778
4.6341 -2.4292 -2.0051 0.9778
4.8330 -2.0065 -2.0053 0.9778
5.1933 -0.6556 -2.0060 0.9778
5.2314 -0.1898 -2.0061 0.9778
5.1823 0.7428 -2.0062 0.9778
5.0954 1.2021 -2.0063 0.9778
4.8006 2.0883 -2.0062 0.9778
4.5950 2.5080 -2.0061 0.9778
4.3527 2.9077 -2.0060 0.9778
3.0598 4.2445 -2.0052 0.9778
1.3814 5.0434 -2.0039 0.9778
0.9259 5.1455 -2.0035 0.9779
-0.0031 5.2262 -2.0028 0.9779
-0.4691 5.2040 -2.0023 0.9779
-2.6678 4.4865 -2.0003 0.9779
-3.4212 3.9396 -1.9995 0.9779
-4.0653 3.2679 -1.9988 0.9779
-4.3399 2.8918 -1.9985 0.9779
-4.7833 2.0741 -1.9980 0.9779
-5.0746 1.1909 -1.9975 0.9779
-5.2047 0.2703 -1.9972 0.9779
-5.2077 -0.1950 -1.9971 0.9779
-5.1694 -0.6587 -1.9970 0.9779
-4.6129 -2.4250 -1.9971 0.9779
-4.3785 -2.8269 -1.9972 0.9779
-4.1092 -3.2065 -1.9974 0.9779
-3.4748 -3.8863 -1.9978 0.9779
-3.1147 -4.1813 -1.9980 0.9779
-2.3228 -4.6695 -1.9986 0.9779
-1.0042 -5.1205 -1.9997 0.9779
-0.5436 -5.1907 -2.0000 0.9779
-0.0785 -5.2195 -2.0004 0.9779
2.1856 -4.7464 -2.0025 0.9779
2.6007 -4.5335 -2.0029 0.9779
3.3662 -4.0008 -2.0037 0.9779
3.7103 -3.6853 -2.0040 0.9778
4.0249 -3.3402 -2.0044 0.9778
4.7677 -2.1564 -2.0053 0.9778
5.0761 -1.2753 -2.0057 0.9778
5.2228 -0.3531 -2.0060 0.9778
5.2338 0.1141 -2.0062 0.9778
5.2029 0.5805 -2.0062 0.9778
5.1305 1.0423 -2.0063 0.9778
5.0171 1.4958 -2.0063 0.9778
4.8636 1.9373 -2.0062 0.9778
4.4416 2.7703 -2.0060 0.9778
4.1765 3.1552 -2.0059 0.9778
2.8081 4.4146 -2.0050 0.9778
1.9785 4.8418 -2.0044 0.9778
1.5385 4.9981 -2.0040 0.9778
1.0863 5.1144 -2.0037 0.9779
-1.2278 5.0770 -2.0017 0.9779
-1.6754 4.9462 -2.0013 0.9779
-2.1094 4.7761 -2.0008 0.9779
-2.5265 4.5680 -2.0004 0.9779
-3.2967 4.0448 -1.9997 0.9779
-3.9615 3.3935 -1.9990 0.9779
-4.7164 2.2226 -1.9980 0.9779
-4.8952 1.7929 -1.9978 0.9779
-5.0351 1.3490 -1.9976 0.9779
-5.1349 0.8944 -1.9974 0.9779
-5.2114 -0.0322 -1.9971 0.9779
-5.1875 -0.4969 -1.9971 0.9779
-5.1224 -0.9576 -1.9970 0.9779
-5.0166 -1.4107 -1.9970 0.9779
-4.8708 -1.8525 -1.9970 0.9779
-3.2436 -4.0817 -1.9980 0.9779
-2.0482 -4.7969 -1.9988 0.9779
-1.1637 -5.0863 -1.9995 0.9779
-0.2415 -5.2141 -2.0003 0.9779
0.6890 -5.1762 -2.0011 0.9779
2.0360 -4.8120 -2.0023 0.9779
2.4576 -4.6122 -2.0027 0.9779
3.2393 -4.1037 -2.0035 0.9779
4.2124 -3.1013 -2.0046 0.9778
4.8852 -1.8763 -2.0054 0.9778
5.0336 -1.4332 -2.0056 0.9778
5.2091 -0.5161 -2.0060 0.9778
5.1605 0.8815 -2.0063 0.9778
4.7429 2.2162 -2.0062 0.9778
4.2732 3.0233 -2.0060 0.9778
3.3193 4.0455 -2.0054 0.9778
0.7876 5.1682 -2.0034 0.9779
-0.6084 5.1892 -2.0022 0.9779
-1.5201 4.9965 -2.0014 0.9779
-3.5254 3.8462 -1.9994 0.9779
-4.4157 2.7743 -1.9984 0.9779
-4.9907 1.5057 -1.9977 0.9779
-5.1046 1.0544 -1.9975 0.9779
-5.2099 0.1307 -1.9972 0.9779
-5.2006 -0.3345 -1.9971 0.9779
-5.1499 -0.7970 -1.9970 0.9779
-5.0582 -1.2532 -1.9970 0.9779
-4.9263 -1.6994 -1.9970 0.9779
-3.7105 -3.6614 -1.9976 0.9779
-3.3695 -3.9782 -1.9979 0.9779
-2.6097 -4.5148 -1.9984 0.9779
-2.1969 -4.7303 -1.9987 0.9779
-1.7666 -4.9082 -1.9990 0.9779
-1.3220 -5.0471 -1.9994 0.9779
-0.4043 -5.2037 -2.0001 0.9779
0.0614 -5.2200 -2.0005 0.9779
0.9883 -5.1281 -2.0014 0.9779
1.8846 -4.8729 -2.0022 0.9779
3.1093 -4.2027 -2.0034 0.9779
4.1132 -3.2313 -2.0045 0.9778
4.8240 -2.0279 -2.0053 0.9778
4.9862 -1.5897 -2.0056 0.9778
5.1903 -0.6787 -2.0059 0.9778
5.1855 0.7198 -2.0062 0.9778
5.1007 1.1794 -2.0063 0.9778
4.9752 1.6297 -2.0063 0.9778
4.3656 2.8883 -2.0060 0.9778
4.0903 3.2660 -2.0059 0.9778
2.2773 4.7092 -2.0046 0.9778
1.4039 5.0372 -2.0039 0.9778
0.9488 5.1414 -2.0036 0.9779
0.4863 5.2046 -2.0032 0.9779
0.0202 5.2262 -2.0028 0.9779
-3.0380 4.2434 -1.9999 0.9779
-4.0508 3.2859 -1.9989 0.9779
-4.7741 2.0953 -1.9980 0.9779
-4.9414 1.6610 -1.9977 0.9779
-5.1569 0.7564 -1.9974 0.9779
-5.0949 -1.0945 -1.9970 0.9779
-4.6236 -2.4045 -1.9971 0.9779
-4.3910 -2.8075 -1.9972 0.9779
-4.1234 -3.1881 -1.9974 0.9779
-3.8229 -3.5435 -1.9976 0.9779
-3.4920 -3.8708 -1.9978 0.9779
-1.9190 -4.8503 -1.9989 0.9779
-0.5667 -5.1881 -2.0000 0.9779
-0.1017 -5.2190 -2.0004 0.9779
0.3643 -5.2084 -2.0008 0.9779
0.8276 -5.1562 -2.0012 0.9779
1.2844 -5.0629 -2.0016 0.9779
1.7313 -4.9291 -2.0020 0.9779
2.1644 -4.7560 -2.0025 0.9779
2.5805 -4.5449 -2.0029 0.9779
2.9762 -4.2975 -2.0033 0.9779
3.3483 -4.0157 -2.0036 0.9779
4.2942 -2.9875 -2.0047 0.9778
4.9339 -1.7447 -2.0055 0.9778
5.2342 0.0909 -2.0061 0.9778
5.1351 1.0195 -2.0063 0.9778
4.8722 1.9156 -2.0062 0.9778
4.6817 2.3425 -2.0062 0.9778
4.1905 3.1366 -2.0059 0.9778
3.8937 3.4976 -2.0057 0.9778
3.2095 4.1328 -2.0053 0.9778
2.4235 4.6360 -2.0047 0.9778
1.5607 4.9912 -2.0040 0.9778
1.1091 5.1096 -2.0037 0.9779
-0.2831 5.2178 -2.0025 0.9779
-1.6534 4.9537 -2.0013 0.9779
-2.5062 4.5792 -2.0005 0.9779
-3.2787 4.0595 -1.9997 0.9779
-4.4882 2.6548 -1.9983 0.9779
-5.0291 1.3713 -1.9976 0.9779
-5.1309 0.9172 -1.9974 0.9779
-5.1918 0.4559 -1.9973 0.9779
-5.2115 -0.0090 -1.9971 0.9779
-5.1266 -0.9348 -1.9970 0.9779
-5.0228 -1.3883 -1.9970 0.9779
-4.4765 -2.6688 -1.9972 0.9779
-3.6111 -3.7597 -1.9977 0.9779
-2.8863 -4.3425 -1.9982 0.9779
-1.6345 -4.9541 -1.9991 0.9779
-0.7285 -5.1675 -1.9999 0.9779
0.6660 -5.1791 -2.0011 0.9779
1.1255 -5.1001 -2.0015 0.9779
2.0146 -4.8210 -2.0023 0.9779
2.4371 -4.6230 -2.0027 0.9779
4.6874 -2.3251 -2.0052 0.9778
4.8768 -1.8980 -2.0054 0.9778
5.0272 -1.4556 -2.0056 0.9778
5.2067 -0.5393 -2.0060 0.9778
5.2344 -0.0727 -2.0061 0.9778
5.2203 0.3944 -2.0062 0.9778
5.0673 1.3157 -2.0063 0.9778
4.9297 1.7625 -2.0062 0.9778
4.5377 2.6101 -2.0061 0.9778
4.2866 3.0043 -2.0060 0.9778
4.0012 3.3743 -2.0058 0.9778
3.3373 4.0307 -2.0054 0.9778
2.9641 4.3117 -2.0051 0.9778
2.1501 4.7684 -2.0045 0.9778
1.7160 4.9403 -2.0042 0.9778
1.2683 5.0728 -2.0038 0.9779
-0.5853 5.1919 -2.0022 0.9779
-1.4979 5.0032 -2.0014 0.9779
-2.3620 4.6556 -2.0006 0.9779
-2.7673 4.4255 -2.0002 0.9779
-4.1372 3.1760 -1.9988 0.9779
-4.6343 2.3897 -1.9982 0.9779
-4.9840 1.5279 -1.9977 0.9779
-5.2020 -0.3114 -1.9971 0.9779
-5.0637 -1.2307 -1.9970 0.9779
-4.5576 -2.5276 -1.9972 0.9779
-4.0365 -3.2976 -1.9974 0.9779
-3.7267 -3.6449 -1.9976 0.9779
-3.0205 -4.2500 -1.9981 0.9779
-2.6297 -4.5031 -1.9984 0.9779
-1.7883 -4.9003 -1.9990 0.9779
-0.8895 -5.1419 -1.9997 0.9779
-0.4274 -5.2018 -2.0001 0.9779
0.0382 -5.2202 -2.0005 0.9779
1.4197 -5.0269 -2.0018 0.9779
1.8629 -4.8812 -2.0022 0.9779
3.4549 -3.9247 -2.0037 0.9779
3.7919 -3.6015 -2.0041 0.9778
4.0987 -3.2495 -2.0044 0.9778
4.6123 -2.4703 -2.0051 0.9778
5.1872 -0.7017 -2.0059 0.9778
5.2295 -0.2363 -2.0061 0.9778
5.1887 0.6967 -2.0062 0.9778
5.1059 1.1568 -2.0063 0.9778
4.1048 3.2477 -2.0059 0.9778
3.7984 3.6006 -2.0057 0.9778
2.7086 4.4761 -2.0049 0.9778
1.8696 4.8846 -2.0043 0.9778
0.9717 5.1372 -2.0036 0.9779
0.0434 5.2261 -2.0028 0.9779
-0.4228 5.2080 -2.0024 0.9779
-0.8855 5.1485 -2.0020 0.9779
-1.3409 5.0480 -2.0016 0.9779
-1.7854 4.9072 -2.0012 0.9779
-2.6279 4.5101 -2.0003 0.9779
-3.3861 3.9699 -1.9996 0.9779
-4.3141 2.9303 -1.9985 0.9779
-4.7648 2.1165 -1.9980 0.9779
-5.2093 -0.1487 -1.9971 0.9779
-5.1751 -0.6127 -1.9970 0.9779
-4.9838 -1.5225 -1.9970 0.9779
-4.4034 -2.7879 -1.9972 0.9779
-3.8386 -3.5265 -1.9976 0.9779
-2.7690 -4.4185 -1.9983 0.9779
-1.0497 -5.1113 -1.9996 0.9779
-0.5898 -5.1855 -2.0000 0.9779
0.3411 -5.2099 -2.0008 0.9779
1.7093 -4.9367 -2.0020 0.9779
2.5603 -4.5563 -2.0028 0.9779
2.9571 -4.3106 -2.0032 0.9779
3.6773 -3.7180 -2.0040 0.9778
4.5326 -2.6131 -2.0050 0.9778
4.7483 -2.1987 -2.0052 0.9778
4.9261 -1.7666 -2.0055 0.9778
5.0645 -1.3204 -2.0057 0.9778
5.1626 -0.8634 -2.0059 0.9778
5.2194 -0.3996 -2.0060 0.9778
5.2346 0.0676 -2.0061 0.9778
5.0302 1.4511 -2.0063 0.9778
4.6921 2.3216 -2.0062 0.9778
4.4661 2.7307 -2.0061 0.9778
4.2044 3.1180 -2.0059 0.9778
3.9092 3.4803 -2.0057 0.9778
3.5828 3.8147 -2.0055 0.9778
3.2279 4.1186 -2.0053 0.9778
2.4441 4.6253 -2.0047 0.9778
1.5829 4.9843 -2.0041 0.9778
0.2067 5.2225 -2.0029 0.9779
-0.2599 5.2191 -2.0025 0.9779
-1.1826 5.0878 -2.0017 0.9779
-1.6313 4.9610 -2.0013 0.9779
-2.8848 4.3495 -2.0001 0.9779
-3.2606 4.0740 -1.9997 0.9779
-3.6103 3.7663 -1.9993 0.9779
-3.9312 3.4287 -1.9990 0.9779
-4.4764 2.6748 -1.9984 0.9779
-4.6965 2.2645 -1.9981 0.9779
-4.8792 1.8363 -1.9978 0.9779
-5.0229 1.3937 -1.9976 0.9779
-5.1268 0.9400 -1.9974 0.9779
-5.0289 -1.3660 -1.9970 0.9779
-4.8871 -1.8091 -1.9970 0.9779
-4.7064 -2.2379 -1.9971 0.9779
-4.4883 -2.6489 -1.9972 0.9779
-4.2344 -3.0388 -1.9973 0.9779
-3.2798 -4.0527 -1.9979 0.9779
-1.6565 -4.9467 -1.9991 0.9779
-0.2879 -5.2117 -2.0002 0.9779
0.1782 -5.2176 -2.0006 0.9779
1.1028 -5.1050 -2.0015 0.9779
1.9931 -4.8299 -2.0023 0.9779
2.4165 -4.6338 -2.0027 0.9779
3.5591 -3.8309 -2.0039 0.9778
4.1845 -3.1386 -2.0045 0.9778
4.4485 -2.7533 -2.0049 0.9778
4.8682 -1.9196 -2.0054 0.9778
5.2220 0.3712 -2.0062 0.9778
5.1682 0.8355 -2.0063 0.9778
4.9375 1.7405 -2.0062 0.9778
4.2999 2.9852 -2.0060 0.9778
4.0162 3.3565 -2.0058 0.9778
3.7004 3.7010 -2.0056 0.9778
3.3552 4.0158 -2.0054 0.9778
2.9832 4.2986 -2.0051 0.9778
2.5876 4.5469 -2.0048 0.9778
1.7379 4.9327 -2.0042 0.9778
1.2908 5.0671 -2.0038 0.9778
0.8335 5.1611 -2.0035 0.9779
-0.0967 5.2250 -2.0027 0.9779
-1.0231 5.1226 -2.0019 0.9779
-2.3413 4.6661 -2.0006 0.9779
-3.1319 4.1742 -1.9998 0.9779
-3.4911 3.8775 -1.9995 0.9779
-3.8224 3.5500 -1.9991 0.9779
-4.6237 2.4103 -1.9982 0.9779
-5.0950 1.0998 -1.9975 0.9779
-5.2086 0.1770 -1.9972 0.9779
-5.1568 -0.7512 -1.9970 0.9779
-5.0692 -1.2082 -1.9970 0.9779
-4.9412 -1.6555 -1.9970 0.9779
-4.5688 -2.5073 -1.9972 0.9779
-4.3272 -2.9050 -1.9973 0.9779
-3.7428 -3.6282 -1.9976 0.9779
-3.0393 -4.2365 -1.9981 0.9779
-2.6497 -4.4914 -1.9984 0.9779
-1.3668 -5.0351 -1.9994 0.9779
-0.9124 -5.1379 -1.9997 0.9779
0.0150 -5.2203 -2.0005 0.9779
0.9427 -5.1366 -2.0013 0.9779
1.8411 -4.8894 -2.0021 0.9779
2.2704 -4.7067 -2.0026 0.9779
2.6817 -4.4863 -2.0030 0.9779
3.4374 -3.9400 -2.0037 0.9779
4.0842 -3.2677 -2.0044 0.9778
4.3601 -2.8908 -2.0047 0.9778
4.8057 -2.0707 -2.0053 0.9778
4.9718 -1.6340 -2.0055 0.9778
5.2284 -0.2595 -2.0061 0.9778
5.1917 0.6736 -2.0062 0.9778
5.1110 1.1340 -2.0063 0.9778
4.9895 1.5854 -2.0063 0.9778
4.6281 2.4465 -2.0061 0.9778
4.3912 2.8494 -2.0060 0.9778
4.1192 3.2295 -2.0059 0.9778
3.8144 3.5837 -2.0057 0.9778
3.4792 3.9092 -2.0055 0.9778
3.1163 4.2034 -2.0052 0.9778
1.4486 5.0246 -2.0040 0.9778
0.9945 5.1329 -2.0036 0.9779
0.0666 5.2259 -2.0028 0.9779
-0.3997 5.2099 -2.0024 0.9779
-0.8626 5.1525 -2.0020 0.9779
-1.3184 5.0540 -2.0016 0.9779
-2.6078 4.5218 -2.0004 0.9779
-3.0002 4.2703 -2.0000 0.9779
-3.7098 3.6680 -1.9992 0.9779
-4.5463 2.5537 -1.9983 0.9779
-4.9264 1.7049 -1.9978 0.9779
-5.1500 0.8022 -1.9974 0.9779
-5.1044 -1.0492 -1.9970 0.9779
-4.9905 -1.5003 -1.9970 0.9779
-4.8369 -1.9395 -1.9970 0.9779
-4.6448 -2.3633 -1.9971 0.9779
-4.1515 -3.1513 -1.9974 0.9779
-3.8542 -3.5094 -1.9975 0.9779
-1.9620 -4.8330 -1.9989 0.9779
-1.5233 -4.9896 -1.9992 0.9779
-0.6128 -5.1828 -2.0000 0.9779
-0.1481 -5.2178 -2.0004 0.9779
0.3179 -5.2113 -2.0008 0.9779
0.7817 -5.1632 -2.0012 0.9779
1.2394 -5.0739 -2.0016 0.9779
2.1220 -4.7750 -2.0024 0.9779
3.6607 -3.7343 -2.0040 0.9778
3.9799 -3.3935 -2.0043 0.9778
4.2674 -3.0255 -2.0046 0.9778
4.5209 -2.6332 -2.0049 0.9778
5.1587 -0.8864 -2.0059 0.9778
5.2102 0.5111 -2.0062 0.9778
5.1439 0.9738 -2.0063 0.9778
5.0366 1.4287 -2.0063 0.9778
4.8890 1.8722 -2.0062 0.9778
4.4782 2.7109 -2.0061 0.9778
2.8668 4.3768 -2.0050 0.9778
2.0429 4.8150 -2.0044 0.9778
1.1545 5.0996 -2.0037 0.9779
0.6949 5.1813 -2.0033 0.9779
0.2299 5.2216 -2.0030 0.9779
-0.2367 5.2203 -2.0026 0.9779
-1.1600 5.0930 -2.0017 0.9779
-1.6093 4.9683 -2.0013 0.9779
-2.4654 4.6014 -2.0005 0.9779
-3.2425 4.0885 -1.9997 0.9779
-3.9159 3.4461 -1.9990 0.9779
-4.6864 2.2854 -1.9981 0.9779
-4.8710 1.8580 -1.9978 0.9779
-5.0167 1.4160 -1.9976 0.9779
-5.1225 0.9628 -1.9974 0.9779
-5.1876 0.5020 -1.9973 0.9779
-5.2114 0.0373 -1.9972 0.9779
-5.1348 -0.8892 -1.9970 0.9779
-4.7163 -2.2169 -1.9971 0.9779
-4.5000 -2.6289 -1.9972 0.9779
-2.9248 -4.3167 -1.9982 0.9779
-2.5285 -4.5610 -1.9985 0.9779
-0.3111 -5.2103 -2.0002 0.9779
0.1549 -5.2183 -2.0006 0.9779
0.6199 -5.1847 -2.0010 0.9779
3.1842 -4.1465 -2.0035 0.9779
4.6665 -2.3666 -2.0051 0.9778
4.8596 -1.9412 -2.0054 0.9778
5.2235 0.3480 -2.0062 0.9778
5.0788 1.2707 -2.0063 0.9778
4.7720 2.1527 -2.0062 0.9778
4.5608 2.5696 -2.0061 0.9778
3.7168 3.6845 -2.0056 0.9778
2.8223 -3.9988 -2.0032 0.9791
3.4891 -3.4349 -2.0039 0.9791
4.0452 -2.7612 -2.0045 0.9791
4.4726 -1.9990 -2.0050 0.9790
4.6336 -1.5923 -2.0053 0.9790
4.8437 -0.7438 -2.0056 0.9790
4.6907 1.4212 -2.0060 0.9790
4.1466 2.6120 -2.0058 0.9790
2.2302 4.3604 -2.0045 0.9791
1.8322 4.5412 -2.0042 0.9791
1.4196 4.6858 -2.0039 0.9791
0.5642 4.8618 -2.0032 0.9791
-1.1707 4.7485 -2.0016 0.9791
-1.5893 4.6243 -2.0013 0.9791
-1.9950 4.4632 -2.0009 0.9791
-2.3847 4.2667 -2.0005 0.9791
-2.7553 4.0363 -2.0001 0.9791
-3.1037 3.7737 -1.9998 0.9791
-3.4274 3.4813 -1.9994 0.9791
-3.7236 3.1612 -1.9991 0.9791
-4.7207 1.2422 -1.9978 0.9791
-1.9577 -0.1963 -0.8053 0.9915
-4.7930 -0.9181 -1.9973 0.9791
-4.3791 -2.1543 -1.9974 0.9791
-4.1697 -2.5364 -1.9975 0.9791
-3.3502 -3.5507 -1.9980 0.9791
-2.6666 -4.0904 -1.9984 0.9791
-2.2915 -4.3126 -1.9987 0.9791
-1.4892 -4.6525 -1.9993 0.9791
-0.6391 -4.8448 -2.0000 0.9791
0.2320 -4.8831 -2.0008 0.9791
0.6667 -4.8438 -2.0011 0.9791
1.5173 -4.6501 -2.0019 0.9791
2.3203 -4.3082 -2.0027 0.9791
3.0500 -3.8287 -2.0034 0.9791
3.6829 -3.2270 -2.0041 0.9791
4.5814 -1.7363 -2.0052 0.9790
4.7185 -1.3208 -2.0054 0.9790
4.8179 -0.8948 -2.0056 0.9790
4.8276 0.8467 -2.0060 0.9790
4.7328 1.2739 -2.0060 0.9790
4.4310 2.0945 -2.0059 0.9790
4.2263 2.4813 -2.0058 0.9790
3.9879 2.8481 -2.0057 0.9790
3.7177 3.1922 -2.0055 0.9790
3.0907 3.8012 -2.0051 0.9790
2.7390 4.0612 -2.0049 0.9791
0.2811 4.8858 -2.0029 0.9791
-0.1558 4.8904 -2.0026 0.9791
-1.0218 4.7831 -2.0018 0.9791
-1.4441 4.6720 -2.0014 0.9791
-2.6280 4.1206 -2.0003 0.9791
-3.6232 3.2762 -1.9992 0.9791
-3.9004 2.9395 -1.9989 0.9791
-4.1464 2.5795 -1.9986 0.9791
-4.3594 2.1991 -1.9984 0.9791
-4.7845 0.9662 -1.9977 0.9791
-1.9565 0.2160 -0.8056 0.9915
-1.9182 0.0396 -0.7852 0.9917
-4.0156 -2.7742 -1.9976 0.9791
-3.4594 -3.4442 -1.9979 0.9791
-2.4250 -4.2387 -1.9986 0.9791
-2.0376 -4.4387 -1.9989 0.9791
-1.6338 -4.6035 -1.9992 0.9791
-1.2169 -4.7316 -1.9996 0.9791
-0.7901 -4.8221 -1.9999 0.9791
-0.3569 -4.8743 -2.0003 0.9791
0.5150 -4.8620 -2.0010 0.9791
1.3712 -4.6949 -2.0018 0.9791
1.7848 -4.5548 -2.0022 0.9791
2.5667 -4.1668 -2.0029 0.9791
3.5801 -3.3403 -2.0040 0.9791
3.8644 -3.0082 -2.0043 0.9791
4.1179 -2.6519 -2.0046 0.9791
4.3386 -2.2743 -2.0049 0.9791
4.5247 -1.8785 -2.0051 0.9790
4.6748 -1.4676 -2.0053 0.9790
4.7875 -1.0449 -2.0055 0.9790
4.8620 -0.6137 -2.0057 0.9790
4.8976 -0.1776 -2.0058 0.9790
4.8942 0.2599 -2.0059 0.9790
4.7703 1.1254 -2.0060 0.9790
4.3019 2.3480 -2.0058 0.9790
3.5260 3.4024 -2.0054 0.9790
2.4985 4.2130 -2.0047 0.9791
1.7097 4.5885 -2.0041 0.9791
1.2934 4.7220 -2.0038 0.9791
0.8669 4.8177 -2.0034 0.9791
-0.8719 4.8130 -2.0019 0.9791
-1.2975 4.7152 -2.0015 0.9791
-1.7125 4.5798 -2.0011 0.9791
-2.1138 4.4079 -2.0008 0.9791
-2.8623 3.9607 -2.0000 0.9791
-3.2036 3.6890 -1.9997 0.9791
-3.8069 3.0601 -1.9990 0.9791
-4.0640 2.7079 -1.9987 0.9791
-4.2887 2.3343 -1.9984 0.9791
-4.4793 1.9422 -1.9982 0.9791
-4.6342 1.5348 -1.9980 0.9791
-4.7521 1.1152 -1.9978 0.9791
-1.9322 -0.0724 -0.7913 0.9917
-4.7666 -1.0462 -1.9973 0.9791
-4.3198 -2.2709 -1.9974 0.9791
-4.1003 -2.6473 -1.9975 0.9791
-3.5652 -3.3343 -1.9978 0.9791
-2.1752 -4.3726 -1.9988 0.9791
-0.9404 -4.7948 -1.9998 0.9791
1.2237 -4.7352 -2.0017 0.9791
3.7683 -3.1273 -2.0042 0.9791
4.2652 -2.4087 -2.0048 0.9791
4.4636 -2.0189 -2.0050 0.9790
4.8031 0.9758 -2.0060 0.9790
4.6970 1.4003 -2.0060 0.9790
4.3732 2.2125 -2.0059 0.9790
4.1582 2.5936 -2.0058 0.9790
3.9101 2.9539 -2.0056 0.9790
3.6307 3.2907 -2.0055 0.9790
3.3224 3.6010 -2.0053 0.9790
2.9876 3.8826 -2.0050 0.9790
2.6291 4.1330 -2.0048 0.9791
1.8523 4.5331 -2.0042 0.9791
1.4404 4.6795 -2.0039 0.9791
0.5858 4.8593 -2.0032 0.9791
0.1501 4.8913 -2.0028 0.9791
-0.7211 4.8383 -2.0021 0.9791
-1.1496 4.7537 -2.0017 0.9791
-1.5687 4.6313 -2.0013 0.9791
-2.7373 4.0485 -2.0001 0.9791
-4.7151 1.2632 -1.9978 0.9791
-2.1453 0.3737 -0.8912 0.9906
-1.9569 0.1631 -0.8037 0.9915
-1.9043 -0.0118 -0.7794 0.9918
-4.3886 -2.1348 -1.9974 0.9791
-4.1809 -2.5179 -1.9975 0.9791
-3.3659 -3.5358 -1.9980 0.9791
-3.0375 -3.8223 -1.9982 0.9791
-2.6848 -4.0785 -1.9984 0.9791
-1.5099 -4.6458 -1.9993 0.9791
-1.0897 -4.7628 -1.9997 0.9791
0.2102 -4.8840 -2.0007 0.9791
0.6452 -4.8467 -2.0011 0.9791
1.4966 -4.6567 -2.0019 0.9791
3.0329 -3.8422 -2.0034 0.9791
3.3641 -3.5570 -2.0037 0.9791
