ply
format ascii 1.0
element vertex 1564
property float32 x
property float32 y
property float32 z
property float32 I
end_header
-11.2004 -8.4119 -1.9847 0.9450
-10.4131 -9.3843 -1.9862 0.9449
-9.5421 -10.2837 -1.9877 0.9449
-4.1844 -13.4583 -1.9969 0.9447
-0.4735 -14.1288 -2.0030 0.9445
0.7894 -14.1291 -2.0051 0.9444
2.0485 -14.0164 -2.0071 0.9444
9.9229 -10.2268 -2.0190 0.9441
10.8021 -9.3066 -2.0203 0.9440
11.5954 -8.3105 -2.0213 0.9440
13.7877 -3.7358 -2.0240 0.9439
14.0674 -2.4914 -2.0242 0.9439
14.2338 -1.2267 -2.0242 0.9439
14.2218 1.3215 -2.0238 0.9439
13.7523 3.8251 -2.0225 0.9440
13.3506 5.0343 -2.0217 0.9440
12.8418 6.2018 -2.0206 0.9440
10.6599 7.7484 -1.8672 0.9482
8.1962 10.2541 -1.8600 0.9483
7.2425 10.9345 -1.8583 0.9484
2.7073 11.6807 -1.6989 0.9527
1.6261 11.6707 -1.6696 0.9535
-1.4996 11.5151 -1.6453 0.9542
-2.8217 12.6890 -1.8418 0.9488
-3.6973 11.6171 -1.7274 0.9519
-7.9908 10.1826 -1.8340 0.9491
-9.6603 8.5896 -1.8316 0.9491
-13.7106 2.6498 -1.9786 0.9451
-13.8919 1.4163 -1.9785 0.9451
-13.9637 0.1715 -1.9787 0.9451
-13.9254 -1.0748 -1.9790 0.9451
-13.7774 -2.3131 -1.9794 0.9451
-12.6889 -5.8853 -1.9818 0.9451
-12.1202 -6.9975 -1.9830 0.9450
-11.4551 -8.0559 -1.9842 0.9450
-9.8560 -9.9777 -1.9872 0.9449
-8.9341 -10.8260 -1.9888 0.9449
-7.9399 -11.5899 -1.9906 0.9448
-6.8808 -12.2631 -1.9924 0.9448
-5.7650 -12.8402 -1.9943 0.9447
-4.6013 -13.3163 -1.9962 0.9447
-0.9145 -14.1021 -2.0023 0.9445
1.6090 -14.0686 -2.0064 0.9444
2.8602 -13.8827 -2.0083 0.9443
5.2913 -13.1783 -2.0121 0.9442
7.5615 -12.0491 -2.0156 0.9442
9.5962 -10.5294 -2.0185 0.9441
11.3280 -8.6673 -2.0210 0.9440
12.6991 -6.5224 -2.0228 0.9440
13.2344 -5.3654 -2.0234 0.9439
13.6634 -4.1646 -2.0239 0.9439
13.9823 -2.9297 -2.0242 0.9439
14.1886 -1.6709 -2.0243 0.9439
13.8670 3.3939 -2.0228 0.9440
13.0317 5.7986 -2.0210 0.9440
9.3806 9.2042 -1.8621 0.9483
7.5830 10.7062 -1.8589 0.9484
6.5918 11.3295 -1.8572 0.9484
5.5497 11.8609 -1.8554 0.9485
4.2424 11.6830 -1.7611 0.9510
2.0003 11.6742 -1.6782 0.9533
-0.1041 11.6548 -1.6514 0.9540
-1.1421 11.5871 -1.6497 0.9541
-3.5510 12.4962 -1.8407 0.9489
-4.6472 12.1185 -1.8390 0.9489
-11.2485 7.3604 -1.9047 0.9471
-12.8631 5.4505 -1.9794 0.9451
-13.2948 4.2804 -1.9790 0.9451
-13.6216 3.0770 -1.9787 0.9451
-13.9511 0.6078 -1.9786 0.9451
-13.2960 -4.3136 -1.9806 0.9451
-12.3304 -6.6140 -1.9826 0.9450
-11.6985 -7.6922 -1.9838 0.9450
-10.9733 -8.7109 -1.9851 0.9450
-8.2956 -11.3326 -1.9899 0.9448
-7.2583 -12.0382 -1.9917 0.9448
-6.1614 -12.6495 -1.9936 0.9447
-3.8233 -13.5697 -1.9975 0.9446
-2.6004 -13.8707 -1.9996 0.9446
-0.0947 -14.1408 -2.0036 0.9445
1.1682 -14.1071 -2.0057 0.9444
4.8754 -13.3330 -2.0115 0.9443
7.1792 -12.2760 -2.0150 0.9442
8.2521 -11.5959 -2.0166 0.9441
10.1954 -9.9591 -2.0194 0.9440
11.0496 -9.0153 -2.0206 0.9440
11.8157 -7.9979 -2.0216 0.9440
14.2613 -0.8448 -2.0242 0.9439
14.1803 1.7021 -2.0236 0.9439
13.6432 4.1918 -2.0223 0.9440
13.2089 5.3895 -2.0214 0.9440
12.6688 6.5427 -2.0203 0.9440
10.4302 8.0174 -1.8640 0.9482
9.6663 8.9091 -1.8626 0.9483
8.8260 9.7279 -1.8611 0.9483
7.9163 10.4673 -1.8595 0.9484
6.9449 11.1216 -1.8578 0.9484
4.8490 12.1552 -1.8542 0.9485
3.4912 11.6879 -1.7284 0.9519
2.3787 11.6777 -1.6886 0.9530
1.3080 11.6678 -1.6636 0.9537
-1.8050 11.4536 -1.6429 0.9542
-4.0375 11.6005 -1.7404 0.9516
-5.3395 11.8216 -1.8379 0.9489
-6.3673 11.2887 -1.8364 0.9490
-9.1088 9.1801 -1.8324 0.9491
-9.8854 8.3261 -1.8313 0.9491
-10.5832 7.4074 -1.8303 0.9492
-12.6879 5.8504 -1.9796 0.9451
-13.1555 4.6941 -1.9791 0.9451
-13.5193 3.5014 -1.9787 0.9451
-13.9250 1.0435 -1.9786 0.9451
-13.9638 -0.2028 -1.9787 0.9451
-13.7116 -2.6818 -1.9796 0.9451
-13.4225 -3.8954 -1.9803 0.9451
-13.0271 -5.0794 -1.9812 0.9451
-12.5286 -6.2242 -1.9822 0.9451
-11.9305 -7.3212 -1.9833 0.9450
-11.2374 -8.3617 -1.9846 0.9450
-10.4543 -9.3375 -1.9861 0.9449
-9.5874 -10.2408 -1.9876 0.9449
-8.6430 -11.0644 -1.9893 0.9449
-7.6284 -11.8017 -1.9911 0.9448
-5.4204 -12.9939 -1.9949 0.9447
-4.2440 -13.4389 -1.9968 0.9447
-3.0315 -13.7777 -1.9989 0.9446
-1.7923 -14.0075 -2.0009 0.9445
-0.5363 -14.1259 -2.0029 0.9445
3.2322 -13.8051 -2.0089 0.9443
6.7902 -12.4907 -2.0144 0.9442
8.9154 -11.1029 -2.0176 0.9441
9.8770 -10.2705 -2.0189 0.9441
10.7603 -9.3543 -2.0202 0.9440
12.2635 -7.3010 -2.0222 0.9440
12.8707 -6.1804 -2.0230 0.9440
13.3746 -5.0092 -2.0236 0.9439
13.7708 -3.7971 -2.0240 0.9439
14.0551 2.5216 -2.0233 0.9439
13.7695 3.7639 -2.0226 0.9440
12.8696 6.1448 -2.0207 0.9440
12.1392 7.1907 -1.9991 0.9446
9.9427 8.6050 -1.8631 0.9483
9.1283 9.4500 -1.8616 0.9483
8.2421 10.2180 -1.8601 0.9483
7.2914 10.9027 -1.8584 0.9484
6.2840 11.4988 -1.8567 0.9484
5.2283 12.0019 -1.8549 0.9485
2.7623 11.6812 -1.7007 0.9527
1.6792 11.6712 -1.6707 0.9535
-1.4488 11.5253 -1.6459 0.9542
-3.6412 11.6198 -1.7253 0.9520
-6.0131 11.4855 -1.8369 0.9490
-5.4961 8.5443 -1.4395 0.9598
-8.0598 8.6475 -1.6749 0.9534
-10.3483 7.7358 -1.8306 0.9491
-11.8469 7.3061 -1.9721 0.9453
-13.4040 3.9224 -1.9789 0.9451
-13.8855 1.4781 -1.9785 0.9451
-13.9627 0.2337 -1.9786 0.9451
-13.1774 -4.6690 -1.9808 0.9451
-11.4904 -8.0045 -1.9842 0.9450
-10.7382 -9.0038 -1.9856 0.9450
-9.8999 -9.9334 -1.9871 0.9449
-0.9771 -14.0972 -2.0022 0.9445
1.5463 -14.0749 -2.0063 0.9444
2.7983 -13.8946 -2.0082 0.9443
4.0303 -13.6027 -2.0102 0.9443
12.0275 -7.6795 -2.0219 0.9440
12.6697 -6.5787 -2.0227 0.9440
13.6446 -4.2253 -2.0239 0.9439
14.1810 -1.7340 -2.0243 0.9439
14.2610 0.8131 -2.0239 0.9439
13.5242 4.5553 -2.0220 0.9440
12.4582 6.8630 -2.0153 0.9442
10.2094 8.2922 -1.8636 0.9483
9.4218 9.1628 -1.8622 0.9483
6.6424 11.3006 -1.8573 0.9484
3.4036 12.6187 -1.8518 0.9486
-0.0522 11.6553 -1.6514 0.9540
-1.0910 11.5974 -1.6505 0.9540
-3.4956 12.5125 -1.8408 0.9489
-4.5934 12.1396 -1.8391 0.9489
-5.2952 8.8266 -1.4584 0.9593
-7.6245 10.4644 -1.8345 0.9490
-9.3498 8.9310 -1.8320 0.9491
-11.1484 7.3659 -1.8932 0.9474
-12.3006 6.6331 -1.9801 0.9451
-13.2758 4.3395 -1.9790 0.9451
-13.6078 3.1377 -1.9787 0.9451
-13.8325 1.9112 -1.9785 0.9451
-13.9482 0.6699 -1.9786 0.9451
-13.9539 -0.5770 -1.9788 0.9451
-13.6361 -3.0486 -1.9798 0.9451
-13.3148 -4.2543 -1.9805 0.9451
-12.8882 -5.4275 -1.9814 0.9451
-11.0115 -8.6617 -1.9851 0.9450
-9.3117 -10.4967 -1.9881 0.9449
-8.3455 -11.2951 -1.9898 0.9448
-2.6619 -13.8582 -1.9995 0.9446
-0.1576 -14.1395 -2.0035 0.9445
7.1243 -12.3073 -2.0149 0.9442
9.2117 -10.8623 -2.0180 0.9441
11.7797 -8.0502 -2.0216 0.9440
13.0330 -5.8337 -2.0232 0.9439
13.8682 -3.4267 -2.0241 0.9439
14.2575 -0.9083 -2.0242 0.9439
14.2802 0.3671 -2.0240 0.9439
13.9812 2.8972 -2.0231 0.9439
13.6620 4.1311 -2.0223 0.9440
12.6981 6.4864 -2.0203 0.9440
11.7827 7.4131 -1.9724 0.9453
10.4662 7.9711 -1.8641 0.9482
8.8696 9.6889 -1.8612 0.9483
7.9632 10.4324 -1.8596 0.9484
6.9946 11.0911 -1.8579 0.9484
5.9718 11.6598 -1.8561 0.9485
3.5480 11.6884 -1.7307 0.9518
2.4330 11.6782 -1.6902 0.9530
1.3606 11.6683 -1.6645 0.9536
0.3122 11.6586 -1.6525 0.9540
-0.8138 12.9959 -1.8450 0.9488
-3.1039 12.6198 -1.8414 0.9489
-3.9806 11.6033 -1.7381 0.9516
-7.2957 10.7004 -1.8350 0.9490
-9.8486 8.3702 -1.8313 0.9491
-12.0720 7.0054 -1.9776 0.9452
-13.1347 4.7526 -1.9791 0.9451
-13.5037 3.5615 -1.9788 0.9451
-13.7662 2.3426 -1.9786 0.9451
-13.9645 -0.1406 -1.9787 0.9451
-13.8986 -1.3859 -1.9791 0.9451
-13.4394 -3.8357 -1.9803 0.9451
-12.5558 -6.1683 -1.9821 0.9451
-9.6324 -10.1976 -1.9876 0.9449
-3.0926 -13.7634 -1.9988 0.9446
-1.8545 -13.9986 -2.0008 0.9445
-0.5991 -14.1227 -2.0028 0.9445
0.6636 -14.1341 -2.0049 0.9444
3.1706 -13.8186 -2.0088 0.9443
4.3947 -13.4936 -2.0107 0.9443
5.5858 -13.0597 -2.0126 0.9442
6.7343 -12.5203 -2.0143 0.9442
7.8305 -11.8794 -2.0160 0.9441
9.8309 -10.3140 -2.0189 0.9441
10.7183 -9.4019 -2.0201 0.9440
11.5205 -8.4129 -2.0212 0.9440
12.2306 -7.3553 -2.0222 0.9440
12.8428 -6.2375 -2.0230 0.9440
14.0664 2.4591 -2.0233 0.9439
13.7864 3.7027 -2.0226 0.9440
13.3955 4.9155 -2.0217 0.9440
12.1850 7.1447 -2.0014 0.9445
10.8368 7.7306 -1.8861 0.9476
9.9812 8.5610 -1.8632 0.9483
9.1707 9.4097 -1.8617 0.9483
5.2819 11.9791 -1.8550 0.9485
3.9482 11.6803 -1.7470 0.9514
1.7323 11.6717 -1.6719 0.9534
0.6775 11.6620 -1.6552 0.9539
-1.3980 11.5356 -1.6464 0.9541
-4.9158 12.0089 -1.8386 0.9489
-5.9622 11.5126 -1.8370 0.9490
-7.9005 10.2540 -1.8341 0.9490
-11.7448 7.3155 -1.9605 0.9456
-12.9809 5.1612 -1.9793 0.9451
-13.3866 3.9819 -1.9789 0.9451
-13.8788 1.5398 -1.9785 0.9451
-13.9615 0.2958 -1.9786 0.9451
-13.9342 -0.9508 -1.9789 0.9451
-13.5509 -3.4134 -1.9800 0.9451
-13.1977 -4.6102 -1.9808 0.9451
-12.1813 -6.8890 -1.9828 0.9450
-10.7778 -8.9557 -1.9855 0.9450
-8.0419 -11.5177 -1.9904 0.9448
-6.9890 -12.2003 -1.9922 0.9448
-2.2903 -13.9289 -2.0001 0.9446
-1.0398 -14.0920 -2.0021 0.9445
3.9696 -13.6198 -2.0101 0.9443
5.1733 -13.2237 -2.0119 0.9442
8.5109 -11.4107 -2.0170 0.9441
11.2499 -8.7672 -2.0209 0.9440
12.6401 -6.6349 -2.0227 0.9440
13.1858 -5.4828 -2.0234 0.9439
13.9556 -3.0540 -2.0241 0.9439
14.2764 -0.5258 -2.0242 0.9439
14.2646 0.7496 -2.0239 0.9439
14.1378 2.0185 -2.0235 0.9439
13.8971 3.2705 -2.0229 0.9440
13.0835 5.6827 -2.0211 0.9440
12.5032 6.8154 -2.0177 0.9441
10.2466 8.2470 -1.8637 0.9482
9.4629 9.1211 -1.8622 0.9483
8.6045 9.9206 -1.8607 0.9483
7.6787 10.6393 -1.8591 0.9484
6.6930 11.2714 -1.8574 0.9484
3.4599 12.6041 -1.8519 0.9486
-1.0399 11.6077 -1.6513 0.9540
-2.3110 12.7976 -1.8426 0.9488
-5.6012 11.6968 -1.8375 0.9490
-7.5782 10.4986 -1.8346 0.9490
-7.7371 8.9193 -1.6730 0.9534
-12.2712 6.6879 -1.9802 0.9451
-12.8145 5.5649 -1.9795 0.9451
-13.2565 4.3986 -1.9790 0.9451
-13.5938 3.1982 -1.9787 0.9451
-13.8239 1.9728 -1.9785 0.9451
-13.9450 0.7319 -1.9786 0.9451
-13.9563 -0.5149 -1.9788 0.9451
-13.6493 -2.9879 -1.9798 0.9451
-12.9119 -5.3700 -1.9814 0.9451
-11.0496 -8.6124 -1.9850 0.9450
-9.3580 -10.4547 -1.9881 0.9449
-8.3953 -11.2573 -1.9898 0.9448
-7.3644 -11.9720 -1.9915 0.9448
-6.2731 -12.5930 -1.9934 0.9447
-1.4791 -14.0476 -2.0014 0.9445
-0.2205 -14.1379 -2.0034 0.9445
2.2996 -13.9802 -2.0075 0.9444
4.7561 -13.3746 -2.0113 0.9443
5.9354 -12.9087 -2.0131 0.9442
7.0691 -12.3384 -2.0148 0.9442
9.1630 -10.9028 -2.0179 0.9441
10.9683 -9.1128 -2.0205 0.9440
11.7435 -8.1024 -2.0215 0.9440
12.4249 -7.0257 -2.0224 0.9440
13.0067 -5.8916 -2.0232 0.9439
13.4840 -4.7093 -2.0237 0.9439
13.8527 -3.4884 -2.0241 0.9439
14.1099 -2.2391 -2.0242 0.9439
14.2818 0.3035 -2.0240 0.9439
14.1952 1.5759 -2.0237 0.9439
13.2570 5.2720 -2.0215 0.9440
11.8427 7.3775 -1.9769 0.9452
10.5019 7.9248 -1.8641 0.9482
9.7459 8.8234 -1.8627 0.9483
8.9130 9.6497 -1.8613 0.9483
3.6051 11.6890 -1.7332 0.9518
2.4874 11.6787 -1.6919 0.9529
1.4134 11.6688 -1.6654 0.9536
0.3641 11.6591 -1.6528 0.9540
-0.6753 11.6123 -1.6481 0.9541
-5.2346 11.8697 -1.8381 0.9489
-9.0273 9.2614 -1.8325 0.9491
-10.5173 7.5016 -1.8304 0.9491
-13.1136 4.8111 -1.9792 0.9451
-13.4878 3.6216 -1.9788 0.9451
-13.9649 -0.0785 -1.9787 0.9451
-13.9045 -1.3240 -1.9790 0.9451
-13.0712 -4.9630 -1.9811 0.9451
-11.3105 -8.2608 -1.9845 0.9450
-10.5362 -9.2434 -1.9859 0.9449
-9.6773 -10.1542 -1.9875 0.9449
-6.6613 -12.3867 -1.9928 0.9448
-5.5353 -12.9439 -1.9947 0.9447
-0.6620 -14.1191 -2.0027 0.9445
3.1089 -13.8320 -2.0087 0.9443
5.5274 -13.0838 -2.0125 0.9442
7.7773 -11.9136 -2.0159 0.9441
8.8156 -11.1809 -2.0174 0.9441
11.4826 -8.4640 -2.0212 0.9440
12.1975 -7.4095 -2.0221 0.9440
12.8147 -6.2944 -2.0229 0.9440
13.7362 -3.9194 -2.0240 0.9439
14.2162 -1.4167 -2.0243 0.9439
14.2850 -0.1429 -2.0241 0.9439
13.4176 4.8559 -2.0218 0.9440
12.9244 6.0304 -2.0208 0.9440
10.9176 7.7151 -1.8942 0.9474
10.0196 8.5167 -1.8632 0.9483
9.2129 9.3691 -1.8618 0.9483
8.3335 10.1450 -1.8602 0.9483
7.3888 10.8383 -1.8586 0.9484
6.3867 11.4435 -1.8569 0.9484
4.0057 11.6785 -1.7493 0.9513
2.8726 11.6822 -1.7045 0.9526
1.7854 11.6722 -1.6731 0.9534
0.7296 11.6625 -1.6557 0.9539
-0.3128 11.6529 -1.6517 0.9540
-1.3471 11.5458 -1.6470 0.9541
-2.6524 12.7274 -1.8421 0.9488
-3.7734 12.4283 -1.8403 0.9489
-4.8626 12.0312 -1.8387 0.9489
-7.8550 10.2895 -1.8342 0.9490
-7.9362 8.6682 -1.6652 0.9536
-9.5457 8.7185 -1.8318 0.9491
-10.2796 7.8280 -1.8307 0.9491
-11.6439 7.3247 -1.9491 0.9459
-12.9579 5.2190 -1.9793 0.9451
-13.3688 4.0416 -1.9789 0.9451
-13.6742 2.8326 -1.9786 0.9451
-13.9600 0.3579 -1.9786 0.9451
-13.9381 -0.8887 -1.9789 0.9451
-13.8064 -2.1289 -1.9793 0.9451
-13.5657 -3.3530 -1.9800 0.9451
-12.7653 -5.7149 -1.9817 0.9451
-10.8171 -8.9073 -1.9854 0.9450
-9.9871 -9.8441 -1.9869 0.9449
-8.0928 -11.4813 -1.9903 0.9448
-7.0429 -12.1685 -1.9921 0.9448
-5.9350 -12.7603 -1.9940 0.9447
-2.3521 -13.9178 -2.0000 0.9446
1.4209 -14.0867 -2.0061 0.9444
3.9088 -13.6367 -2.0100 0.9443
9.4539 -10.6554 -2.0183 0.9441
11.2104 -8.8170 -2.0208 0.9440
12.6102 -6.6909 -2.0227 0.9440
13.1611 -5.5413 -2.0233 0.9439
13.6062 -4.3464 -2.0238 0.9439
14.1650 -1.8602 -2.0243 0.9439
14.2740 -0.5892 -2.0242 0.9439
14.2679 0.6862 -2.0239 0.9439
14.1468 1.9556 -2.0235 0.9439
13.9118 3.2087 -2.0229 0.9440
13.5648 4.4350 -2.0221 0.9440
12.5481 6.7677 -2.0200 0.9440
11.4826 7.5878 -1.9501 0.9459
10.2835 8.2016 -1.8637 0.9482
9.5038 9.0793 -1.8623 0.9483
7.7263 10.6054 -1.8592 0.9484
4.4243 11.6949 -1.7717 0.9507
3.2530 11.6469 -1.7134 0.9523
1.0966 11.6658 -1.6602 0.9538
-0.9887 11.6180 -1.6521 0.9540
-7.5316 10.5326 -1.8346 0.9490
-8.4350 9.8118 -1.8333 0.9491
-9.2705 9.0145 -1.8321 0.9491
-10.0318 8.1469 -1.8311 0.9491
-12.7898 5.6219 -1.9795 0.9451
-13.2369 4.4576 -1.9790 0.9451
-13.5795 3.2587 -1.9787 0.9451
-13.9416 0.7939 -1.9786 0.9451
-13.9583 -0.4528 -1.9788 0.9451
-13.8650 -1.6963 -1.9792 0.9451
-13.6623 -2.9270 -1.9797 0.9451
-13.3516 -4.1356 -1.9805 0.9451
-12.4165 -6.4483 -1.9824 0.9450
-11.7525 -7.5049 -1.9758 0.9452
-10.2871 -9.5246 -1.9864 0.9449
-8.4449 -11.2194 -1.9897 0.9448
-7.4173 -11.9386 -1.9915 0.9448
0.9796 -14.1193 -2.0054 0.9444
4.6963 -13.3950 -2.0112 0.9443
5.8777 -12.9344 -2.0130 0.9442
9.1140 -10.9431 -2.0178 0.9441
10.0606 -10.0933 -2.0192 0.9441
10.9274 -9.1612 -2.0204 0.9440
12.3933 -7.0808 -2.0224 0.9440
12.9801 -5.9493 -2.0231 0.9439
13.4627 -4.7691 -2.0237 0.9439
14.0998 -2.3018 -2.0242 0.9439
14.2022 1.5127 -2.0237 0.9439
14.0069 2.7727 -2.0231 0.9439
12.7561 6.3735 -2.0204 0.9440
10.5374 7.8783 -1.8642 0.9482
8.9562 9.6104 -1.8613 0.9483
5.0115 12.0912 -1.8545 0.9485
3.6620 11.6886 -1.7355 0.9517
2.5419 11.6792 -1.6936 0.9529
-1.6530 11.4842 -1.6440 0.9542
-2.9918 12.6481 -1.8416 0.9488
-5.1819 11.8934 -1.8382 0.9489
-8.9863 9.3018 -1.8325 0.9491
-10.4841 7.5485 -1.8305 0.9491
-11.9998 7.1071 -1.9761 0.9452
-12.6093 6.0194 -1.9797 0.9451
-13.0922 4.8694 -1.9792 0.9451
-13.4717 3.6816 -1.9788 0.9451
-13.9098 1.2292 -1.9785 0.9451
5.6222 9.7628 -1.8559 0.9554
1.8469 11.0746 -1.8496 0.9555
-0.1500 11.2070 -1.8464 0.9556
-2.1351 10.9832 -1.8432 0.9557
-4.0461 10.4123 -1.8403 0.9557
-5.2616 8.5961 -1.6603 0.9600
-6.6443 8.9506 -1.8364 0.9558
-7.4116 8.3172 -1.8353 0.9558
-9.4494 7.3988 -1.9771 0.9525
-10.1051 6.5481 -1.9837 0.9524
-11.4686 3.6362 -1.9820 0.9524
-11.9301 1.5403 -1.9817 0.9524
-11.9160 -1.6736 -1.9823 0.9524
-11.4357 -3.7664 -1.9835 0.9524
-11.0587 -4.7733 -1.9843 0.9523
-10.5938 -5.7433 -1.9852 0.9523
-7.9360 -9.1078 -1.9901 0.9522
-6.2009 -10.3888 -1.9931 0.9521
-5.2538 -10.9093 -1.9947 0.9521
-2.1838 -11.9416 -1.9999 0.9520
-1.1109 -12.0994 -2.0016 0.9519
-0.0273 -12.1609 -2.0034 0.9519
1.0584 -12.1254 -2.0051 0.9519
2.1375 -11.9928 -2.0068 0.9518
3.2014 -11.7642 -2.0085 0.9518
6.2159 -10.5210 -2.0131 0.9517
7.9967 -9.2612 -2.0157 0.9516
8.7959 -8.5158 -2.0169 0.9516
9.5252 -7.7012 -2.0179 0.9516
10.1786 -6.8240 -2.0188 0.9515
11.2366 -4.9101 -2.0201 0.9515
11.6323 -3.8892 -2.0206 0.9515
11.9345 -2.8365 -2.0209 0.9515
12.2591 0.4243 -2.0208 0.9515
12.1703 1.5158 -2.0204 0.9515
11.9836 2.5946 -2.0199 0.9515
11.7006 3.6520 -2.0193 0.9515
10.8562 5.6679 -2.0175 0.9516
10.3020 6.6102 -2.0165 0.9516
7.5465 8.3923 -1.8593 0.9553
6.7628 9.0253 -1.8579 0.9553
5.0436 10.0672 -1.8550 0.9554
2.1927 11.0149 -1.8502 0.9555
1.2005 11.1568 -1.8486 0.9555
0.2004 11.2096 -1.8470 0.9556
-2.7674 10.8350 -1.8423 0.9557
-4.6412 10.1550 -1.8394 0.9557
-5.5245 9.6935 -1.8380 0.9558
-6.3627 9.1559 -1.8368 0.9558
-7.1496 8.5465 -1.8356 0.9558
-7.8789 7.8703 -1.8346 0.9559
-8.9018 7.4303 -1.9102 0.9541
-11.3501 3.9930 -1.9821 0.9524
-11.8007 -2.3626 -1.9826 0.9524
-11.5464 -3.4068 -1.9832 0.9524
-10.7662 -5.4086 -1.9848 0.9523
-8.9655 -8.0797 -1.9882 0.9523
-8.2147 -8.8532 -1.9896 0.9522
-7.3976 -9.5575 -1.9910 0.9522
-6.5207 -10.1871 -1.9926 0.9521
-4.6144 -11.2018 -1.9958 0.9521
-3.6000 -11.5786 -1.9975 0.9520
-2.5551 -11.8639 -1.9993 0.9520
-0.4072 -12.1504 -2.0028 0.9519
2.8314 -11.8550 -2.0079 0.9518
3.8806 -11.5646 -2.0095 0.9518
5.8826 -10.7074 -2.0126 0.9517
6.8189 -10.1471 -2.0140 0.9516
7.7018 -9.5046 -2.0153 0.9516
9.9590 -7.1376 -2.0185 0.9515
11.0766 -5.2583 -2.0199 0.9515
11.5043 -4.2505 -2.0204 0.9515
11.8396 -3.2079 -2.0208 0.9515
12.0796 -2.1393 -2.0210 0.9515
12.2225 -1.0534 -2.0210 0.9515
12.0600 2.2191 -2.0201 0.9515
11.4661 4.3237 -2.0188 0.9515
11.0300 5.3268 -2.0179 0.9516
10.5055 6.2862 -2.0168 0.9516
9.8070 7.1284 -1.9973 0.9520
7.0434 8.8118 -1.8584 0.9553
4.4485 10.3373 -1.8539 0.9554
3.5058 10.6837 -1.8524 0.9554
0.5507 11.2013 -1.8475 0.9556
-0.4501 11.1960 -1.8459 0.9556
-5.2202 9.8639 -1.8385 0.9558
-6.8804 8.7676 -1.8360 0.9558
-9.6623 7.1562 -1.9808 0.9524
-10.2758 6.2742 -1.9834 0.9524
-10.7909 5.3309 -1.9828 0.9524
-11.2206 4.3461 -1.9823 0.9524
-11.8109 2.2827 -1.9817 0.9524
-12.0288 0.1478 -1.9818 0.9524
-11.6459 -3.0439 -1.9830 0.9524
-11.3320 -4.0720 -1.9837 0.9524
-10.9282 -5.0686 -1.9845 0.9523
-10.4376 -6.0261 -1.9855 0.9523
-8.4853 -8.5901 -1.9891 0.9522
-7.6907 -9.3193 -1.9905 0.9522
-4.9608 -11.0489 -1.9952 0.9521
-1.8634 -11.9990 -2.0004 0.9520
-0.7865 -12.1280 -2.0022 0.9519
0.2987 -12.1604 -2.0039 0.9519
2.4588 -11.9343 -2.0073 0.9518
4.5474 -11.3258 -2.0106 0.9517
6.4970 -10.3527 -2.0135 0.9517
8.2435 -9.0451 -2.0161 0.9516
9.0224 -8.2784 -2.0172 0.9516
9.7296 -7.4442 -2.0182 0.9515
10.3591 -6.5495 -2.0190 0.9515
11.7330 -3.5762 -2.0207 0.9515
12.0066 -2.5157 -2.0209 0.9515
12.2626 -0.3424 -2.0209 0.9515
12.2428 0.7527 -2.0207 0.9515
12.1245 1.8413 -2.0203 0.9515
11.9087 2.9146 -2.0197 0.9515
11.5973 3.9638 -2.0190 0.9515
11.1928 4.9804 -2.0182 0.9515
10.6988 5.9559 -2.0172 0.9516
7.3172 8.5897 -1.8589 0.9553
6.5170 9.2011 -1.8575 0.9553
5.6658 9.7381 -1.8560 0.9554
4.7708 10.1962 -1.8545 0.9554
3.8391 10.5722 -1.8529 0.9554
2.8783 10.8630 -1.8513 0.9555
1.8962 11.0668 -1.8497 0.9555
-0.1001 11.2080 -1.8465 0.9556
-1.0984 11.1448 -1.8449 0.9556
-2.0863 10.9931 -1.8433 0.9557
-3.0560 10.7543 -1.8418 0.9557
-3.9999 10.4306 -1.8403 0.9557
-4.9106 10.0247 -1.8390 0.9558
-6.6046 8.9803 -1.8364 0.9558
-7.3748 8.3504 -1.8353 0.9558
-10.0761 6.5931 -1.9837 0.9524
-10.6202 5.6661 -1.9830 0.9524
-11.0802 4.6950 -1.9824 0.9524
-11.4524 3.6872 -1.9820 0.9524
-11.9231 1.5934 -1.9817 0.9524
-12.0180 0.5236 -1.9817 0.9524
-12.0181 -0.5505 -1.9819 0.9524
-10.0739 -6.6239 -1.9862 0.9523
-8.7475 -8.3187 -1.9886 0.9522
-7.1405 -9.7546 -1.9915 0.9522
-6.2468 -10.3606 -1.9930 0.9521
-2.2368 -11.9312 -1.9998 0.9520
-0.0814 -12.1601 -2.0033 0.9519
2.0841 -12.0017 -2.0067 0.9518
4.1902 -11.4592 -2.0100 0.9517
7.0899 -9.9627 -2.0144 0.9516
10.7242 -5.9387 -2.0195 0.9515
11.2145 -4.9600 -2.0201 0.9515
11.6148 -3.9408 -2.0205 0.9515
11.9218 -2.8896 -2.0208 0.9515
12.1328 -1.8148 -2.0210 0.9515
12.2609 0.3697 -2.0208 0.9515
12.1771 1.4617 -2.0204 0.9515
11.9952 2.5413 -2.0199 0.9515
11.7170 3.5999 -2.0193 0.9515
10.8816 5.6197 -2.0176 0.9516
9.2185 7.0859 -1.9154 0.9540
7.5840 8.3590 -1.8594 0.9553
6.8032 8.9954 -1.8580 0.9553
5.9691 9.5589 -1.8565 0.9553
4.1688 10.4501 -1.8535 0.9554
3.2173 10.7711 -1.8519 0.9555
0.2503 11.2091 -1.8470 0.9556
-4.5962 10.1759 -1.8394 0.9557
-5.4815 9.7183 -1.8381 0.9558
-7.1117 8.5785 -1.8357 0.9558
-10.4392 5.9959 -1.9832 0.9524
-11.3323 4.0435 -1.9822 0.9524
-11.9956 0.8989 -1.9817 0.9524
-12.0289 -0.1747 -1.9818 0.9524
-11.9671 -1.2471 -1.9821 0.9524
-11.8109 -2.3100 -1.9826 0.9524
-11.2201 -4.3748 -1.9839 0.9524
-9.6762 -7.2001 -1.9869 0.9523
-9.0011 -8.0395 -1.9882 0.9523
-8.2537 -8.8162 -1.9895 0.9522
-7.4398 -9.5242 -1.9910 0.9522
-6.5657 -10.1576 -1.9925 0.9522
-5.6380 -10.7113 -1.9941 0.9521
-4.6640 -11.1808 -1.9957 0.9521
-2.6077 -11.8519 -1.9992 0.9520
0.6247 -12.1512 -2.0044 0.9519
1.7075 -12.0574 -2.0061 0.9518
2.7785 -11.8670 -2.0078 0.9518
3.8290 -11.5813 -2.0095 0.9518
4.8505 -11.2024 -2.0110 0.9517
6.7735 -10.1770 -2.0139 0.9516
7.6592 -9.5384 -2.0152 0.9516
9.2425 -8.0348 -2.0175 0.9516
9.9269 -7.1818 -2.0184 0.9515
11.4852 -4.3016 -2.0204 0.9515
11.8251 -3.2606 -2.0208 0.9515
12.2177 -1.1077 -2.0210 0.9515
12.2670 -0.0136 -2.0209 0.9515
11.8252 3.2324 -2.0195 0.9515
11.4855 4.2727 -2.0188 0.9515
10.5337 6.2396 -2.0169 0.9516
9.8477 7.0913 -1.9991 0.9520
8.5712 7.4180 -1.8674 0.9551
6.2666 9.3703 -1.8570 0.9553
2.5855 10.9334 -1.8508 0.9555
0.6006 11.1992 -1.8476 0.9556
-1.3964 11.1085 -1.8444 0.9556
-2.3796 10.9305 -1.8429 0.9557
-3.3423 10.6660 -1.8414 0.9557
-4.2771 10.3173 -1.8399 0.9557
-9.6273 7.1969 -1.9802 0.9524
-11.2012 4.3960 -1.9823 0.9524
-11.8007 2.3352 -1.9817 0.9524
-12.0280 0.2013 -1.9818 0.9524
-11.8763 -1.9396 -1.9824 0.9524
-11.6591 -2.9921 -1.9830 0.9524
-10.9504 -5.0198 -1.9845 0.9523
-9.8944 -6.8927 -1.9865 0.9523
-8.5231 -8.5519 -1.9890 0.9522
-5.0097 -11.0263 -1.9952 0.9521
-2.9759 -11.7610 -1.9986 0.9520
-1.9167 -11.9900 -2.0003 0.9520
0.2446 -12.1611 -2.0038 0.9519
2.4056 -11.9446 -2.0072 0.9518
4.4968 -11.3454 -2.0105 0.9517
6.4506 -10.3812 -2.0135 0.9517
7.3558 -9.7709 -2.0148 0.9516
8.2030 -9.0815 -2.0160 0.9516
10.3296 -6.5954 -2.0190 0.9515
10.8806 -5.6497 -2.0197 0.9515
11.3443 -4.6580 -2.0202 0.9515
11.7169 -3.6283 -2.0207 0.9515
11.9953 -2.5691 -2.0209 0.9515
12.1771 -1.4890 -2.0210 0.9515
12.2610 -0.3969 -2.0209 0.9515
12.1327 1.7874 -2.0203 0.9515
11.9217 2.8616 -2.0198 0.9515
11.2151 4.9306 -2.0182 0.9515
8.8008 7.1481 -1.8678 0.9551
7.3556 8.5573 -1.8590 0.9553
5.7093 9.7131 -1.8561 0.9554
2.9267 10.8506 -1.8514 0.9555
1.9455 11.0587 -1.8498 0.9555
-2.0375 11.0027 -1.8434 0.9557
-4.8662 10.0468 -1.8390 0.9558
-8.0518 7.6912 -1.8343 0.9559
-9.2984 7.4150 -1.9592 0.9529
-10.0468 6.6380 -1.9837 0.9524
-11.0593 4.7443 -1.9825 0.9524
-11.7223 2.7029 -1.9818 0.9524
-11.9159 1.6464 -1.9817 0.9524
-12.0155 0.5770 -1.9817 0.9524
-12.0203 -0.4970 -1.9819 0.9524
-11.9301 -1.5675 -1.9823 0.9524
-11.7457 -2.6260 -1.9827 0.9524
-11.4684 -3.6643 -1.9834 0.9524
-10.6439 -5.6486 -1.9851 0.9523
-10.1030 -6.5789 -1.9861 0.9523
-8.0161 -9.0362 -1.9899 0.9522
-6.2926 -10.3323 -1.9930 0.9521
-5.3502 -10.8612 -1.9946 0.9521
-2.2897 -11.9206 -1.9997 0.9520
-0.1355 -12.1591 -2.0032 0.9519
0.9504 -12.1333 -2.0049 0.9519
2.0305 -12.0104 -2.0067 0.9518
5.1502 -11.0709 -2.0115 0.9517
6.1216 -10.5751 -2.0130 0.9517
7.0452 -9.9938 -2.0143 0.9516
8.7193 -8.5933 -2.0168 0.9516
9.4559 -7.7853 -2.0178 0.9516
10.1171 -6.9140 -2.0187 0.9515
10.6975 -5.9863 -2.0195 0.9515
11.1922 -5.0098 -2.0201 0.9515
12.1246 -1.8688 -2.0210 0.9515
12.2626 0.3152 -2.0208 0.9515
12.1836 1.4074 -2.0205 0.9515
10.3610 6.5186 -2.0166 0.9516
8.3676 7.6436 -1.8670 0.9551
6.8434 8.9654 -1.8581 0.9553
6.0118 9.5326 -1.8566 0.9553
1.2998 11.1466 -1.8487 0.9555
-0.7001 11.1807 -1.8455 0.9556
-1.6932 11.0642 -1.8439 0.9556
-3.6262 10.5701 -1.8409 0.9557
-4.5510 10.1967 -1.8395 0.9557
-6.2814 9.2128 -1.8369 0.9558
-7.0737 8.6103 -1.8357 0.9558
-7.8090 7.9405 -1.8347 0.9559
-8.7494 7.4361 -1.8916 0.9545
-10.4126 6.0424 -1.9833 0.9524
-10.9066 5.0880 -1.9826 0.9524
-11.3143 4.0940 -1.9822 0.9524
-11.6325 3.0680 -1.9819 0.9524
-11.9914 0.9522 -1.9817 0.9524
-12.0295 -0.1211 -1.9818 0.9524
-11.9725 -1.1938 -1.9821 0.9524
-10.8134 -5.3123 -1.9848 0.9523
-10.3017 -6.2588 -1.9858 0.9523
-8.2925 -8.7791 -1.9895 0.9522
-2.6603 -11.8396 -1.9991 0.9520
0.5706 -12.1533 -2.0043 0.9519
1.6537 -12.0644 -2.0061 0.9518
2.7256 -11.8788 -2.0078 0.9518
4.8004 -11.2235 -2.0110 0.9517
5.7867 -10.7585 -2.0125 0.9517
9.2064 -8.0756 -2.0175 0.9516
9.8946 -7.2257 -2.0184 0.9515
10.5039 -6.3169 -2.0192 0.9515
11.4658 -4.3526 -2.0204 0.9515
11.8104 -3.3131 -2.0207 0.9515
12.2669 -0.0682 -2.0209 0.9515
12.2224 1.0261 -2.0206 0.9515
12.0796 2.1117 -2.0202 0.9515
11.8396 3.1798 -2.0196 0.9515
10.5616 6.1928 -2.0170 0.9516
7.8798 8.0852 -1.8599 0.9553
6.3085 9.3427 -1.8571 0.9553
5.4457 9.8603 -1.8556 0.9554
4.5407 10.2981 -1.8541 0.9554
3.6010 10.6530 -1.8525 0.9554
0.6505 11.1969 -1.8477 0.9556
-0.3505 11.2005 -1.8461 0.9556
-1.3470 11.1150 -1.8445 0.9556
-2.3311 10.9414 -1.8429 0.9557
-4.2313 10.3366 -1.8400 0.9557
-6.8026 8.8291 -1.8361 0.9558
-7.5585 8.1822 -1.8350 0.9558
-9.5922 7.2374 -1.9795 0.9525
-11.1817 4.4459 -1.9823 0.9524
-11.5315 3.4301 -1.9820 0.9524
-11.7902 2.3876 -1.9817 0.9524
-12.0032 -0.8191 -1.9820 0.9524
-11.8846 -1.8868 -1.9824 0.9524
-9.9247 -6.8485 -1.9865 0.9523
-9.2799 -7.7110 -1.9877 0.9523
-8.5608 -8.5136 -1.9890 0.9522
-7.7728 -9.2498 -1.9904 0.9522
-6.0148 -10.4998 -1.9934 0.9521
-5.0585 -11.0034 -1.9951 0.9521
-4.0603 -11.4204 -1.9968 0.9521
-3.0281 -11.7471 -1.9985 0.9520
0.1905 -12.1616 -2.0037 0.9519
2.3523 -11.9546 -2.0072 0.9518
4.4461 -11.3649 -2.0104 0.9517
6.4041 -10.4094 -2.0134 0.9517
8.1622 -9.1176 -2.0160 0.9516
8.9479 -8.3579 -2.0171 0.9516
9.6625 -7.5301 -2.0181 0.9516
10.3000 -6.6411 -2.0189 0.9515
11.7005 -3.6804 -2.0206 0.9515
12.2591 -0.4515 -2.0209 0.9515
11.6325 3.8606 -2.0191 0.9515
11.2372 4.8808 -2.0183 0.9515
10.7519 5.8608 -2.0173 0.9516
8.8328 7.1091 -1.8679 0.9551
7.3939 8.5248 -1.8590 0.9553
3.9333 10.5385 -1.8531 0.9554
2.9751 10.8379 -1.8515 0.9555
1.9948 11.0505 -1.8499 0.9555
-0.0004 11.2094 -1.8466 0.9556
-2.9605 10.7820 -1.8420 0.9557
-5.2219 8.7927 -1.6847 0.9594
-6.5248 9.0393 -1.8365 0.9558
-9.2179 7.4181 -1.9492 0.9532
-10.0174 6.6828 -1.9838 0.9524
-10.5697 5.7606 -1.9831 0.9524
-11.0382 4.7935 -1.9825 0.9524
-11.9085 1.6995 -1.9817 0.9524
-12.0223 -0.4435 -1.9819 0.9524
-11.9369 -1.5143 -1.9822 0.9524
-11.7571 -2.5737 -1.9827 0.9524
-10.1319 -6.5337 -1.9861 0.9523
-8.8206 -8.2400 -1.9885 0.9522
-8.0560 -9.0001 -1.9899 0.9522
-7.2264 -9.6899 -1.9913 0.9522
-5.3983 -10.8368 -1.9945 0.9521
-4.4139 -11.2846 -1.9962 0.9521
-1.2721 -12.0819 -2.0014 0.9519
-0.1896 -12.1578 -2.0031 0.9519
4.0877 -11.4951 -2.0099 0.9517
7.8717 -9.3663 -2.0156 0.9516
8.6807 -8.6318 -2.0167 0.9516
9.4209 -7.8271 -2.0178 0.9516
10.6706 -6.0337 -2.0194 0.9515
11.5791 -4.0440 -2.0205 0.9515
11.8954 -2.9955 -2.0208 0.9515
12.1161 -1.9227 -2.0210 0.9515
12.2639 0.2606 -2.0208 0.9515
11.7490 3.4957 -2.0194 0.9515
10.3901 6.4726 -2.0166 0.9516
9.6200 7.2593 -1.9854 0.9523
8.4018 7.6065 -1.8671 0.9551
6.0544 9.5062 -1.8567 0.9553
1.3495 11.1412 -1.8488 0.9555
0.3500 11.2074 -1.8472 0.9556
-1.6440 11.0721 -1.8440 0.9556
-3.5792 10.5865 -1.8410 0.9557
-4.5058 10.2172 -1.8396 0.9557
-5.3952 9.7674 -1.8382 0.9558
-7.0355 8.6420 -1.8358 0.9558
-8.6742 7.4389 -1.8825 0.9547
-9.8014 6.9909 -1.9833 0.9524
-10.3858 6.0888 -1.9833 0.9524
-10.8840 5.1366 -1.9827 0.9524
-11.2961 4.1443 -1.9822 0.9524
-11.6188 3.1197 -1.9819 0.9524
-11.8497 2.0708 -1.9817 0.9524
-11.9871 1.0056 -1.9817 0.9524
-12.0298 -0.0676 -1.9818 0.9524
-11.5903 -3.2522 -1.9831 0.9524
-10.8367 -5.2640 -1.9847 0.9523
-9.7393 -7.1133 -1.9868 0.9523
-8.3313 -8.7418 -1.9894 0.9522
-7.5237 -9.4569 -1.9908 0.9522
-6.6553 -10.0980 -1.9923 0.9522
-5.7326 -10.6598 -1.9939 0.9521
-4.7629 -11.1379 -1.9956 0.9521
-3.7537 -11.5281 -1.9973 0.9520
-2.7128 -11.8272 -1.9990 0.9520
-0.5693 -12.1423 -2.0025 0.9519
0.5165 -12.1552 -2.0043 0.9519
1.6000 -12.0711 -2.0060 0.9518
4.7502 -11.2442 -2.0109 0.9517
6.6822 -10.2362 -2.0138 0.9517
7.5735 -9.6056 -2.0151 0.9516
8.4051 -8.8971 -2.0163 0.9516
9.8621 -7.2695 -2.0184 0.9515
10.4755 -6.3634 -2.0192 0.9515
11.0050 -5.4055 -2.0198 0.9515
12.0499 -2.3004 -2.0209 0.9515
12.2073 -1.2165 -2.0210 0.9515
12.0890 2.0580 -2.0202 0.9515
11.5236 4.1704 -2.0189 0.9515
11.1008 5.1795 -2.0180 0.9516
9.9289 7.0164 -2.0029 0.9519
7.9160 8.0503 -1.8599 0.9553
4.5867 10.2783 -1.8542 0.9554
2.6829 10.9109 -1.8510 0.9555
1.6975 11.0970 -1.8494 0.9555
0.7003 11.1944 -1.8478 0.9555
-3.2475 10.6962 -1.8415 0.9557
-6.7634 8.8596 -1.8362 0.9558
-9.5570 7.2777 -1.9789 0.9525
-10.1917 6.4112 -1.9835 0.9524
-11.1619 4.4957 -1.9823 0.9524
-11.7795 2.4401 -1.9817 0.9524
-11.9498 1.3797 -1.9817 0.9524
-11.8928 -1.8338 -1.9824 0.9524
-11.6849 -2.8881 -1.9829 0.9524
-10.9942 -4.9220 -1.9844 0.9523
-9.9549 -6.8040 -1.9864 0.9523
-9.3138 -7.6695 -1.9876 0.9523
-8.5983 -8.4752 -1.9889 0.9522
-3.0802 -11.7331 -1.9984 0.9520
-2.0232 -11.9715 -2.0001 0.9520
0.1363 -12.1617 -2.0036 0.9519
4.3954 -11.3841 -2.0103 0.9517
8.1214 -9.1535 -2.0159 0.9516
8.9104 -8.3974 -2.0170 0.9516
9.6286 -7.5729 -2.0180 0.9516
10.2701 -6.6868 -2.0189 0.9515
12.2571 -0.5060 -2.0209 0.9515
12.2520 0.5892 -2.0207 0.9515
11.6498 3.8089 -2.0191 0.9515
10.7782 5.8131 -2.0174 0.9516
10.2109 6.7474 -2.0162 0.9516
8.8744 7.0778 -1.8700 0.9550
8.1725 7.8075 -1.8620 0.9552
7.4321 8.4921 -1.8591 0.9553
6.6400 9.1144 -1.8577 0.9553
4.9070 10.1329 -1.8547 0.9554
3.9803 10.5213 -1.8532 0.9554
2.0441 11.0420 -1.8499 0.9555
0.0495 11.2098 -1.8467 0.9556
-0.9497 11.1599 -1.8451 0.9556
-1.9397 11.0213 -1.8435 0.9556
-2.9126 10.7954 -1.8420 0.9557
-4.7769 10.0905 -1.8392 0.9558
-5.2195 8.8784 -1.6966 0.9591
-6.4848 9.0686 -1.8366 0.9558
-7.9834 7.7629 -1.8344 0.9559
-11.0169 4.8426 -1.9825 0.9524
-11.6978 2.8071 -1.9818 0.9524
-11.9008 1.7524 -1.9817 0.9524
-12.0099 0.6839 -1.9817 0.9524
-12.0241 -0.3900 -1.9819 0.9524
-11.9434 -1.4612 -1.9822 0.9524
-11.1409 -4.5754 -1.9841 0.9523
-10.1606 -6.4884 -1.9860 0.9523
-9.5469 -7.3730 -1.9872 0.9523
-8.8569 -8.2004 -1.9884 0.9522
-8.0956 -8.9639 -1.9898 0.9522
-7.2692 -9.6573 -1.9913 0.9522
-2.3955 -11.8988 -1.9995 0.9520
-0.2437 -12.1563 -2.0030 0.9519
0.8423 -12.1402 -2.0048 0.9519
2.9910 -11.8173 -2.0082 0.9518
5.0511 -11.1154 -2.0113 0.9517
6.9556 -10.0554 -2.0142 0.9516
7.8297 -9.4010 -2.0155 0.9516
8.6420 -8.6701 -2.0167 0.9516
9.3858 -7.8688 -2.0177 0.9516
10.0547 -7.0034 -2.0186 0.9515
10.6434 -6.0811 -2.0194 0.9515
11.1468 -5.1091 -2.0200 0.9515
11.5608 -4.0954 -2.0205 0.9515
12.2650 0.2060 -2.0208 0.9515
11.7646 3.4434 -2.0194 0.9515
11.4062 4.4773 -2.0186 0.9515
10.4191 6.4265 -2.0167 0.9516
9.6704 7.2301 -1.9891 0.9522
6.9234 8.9048 -1.8582 0.9553
3.3612 10.7286 -1.8521 0.9554
2.3888 10.9761 -1.8505 0.9555
0.3999 11.2062 -1.8473 0.9556
-0.6006 11.1875 -1.8457 0.9556
-2.5746 10.8843 -1.8426 0.9557
-3.5323 10.6027 -1.8411 0.9557
-4.4604 10.2375 -1.8396 0.9557
-5.3518 9.7917 -1.8383 0.9558
-5.6656 8.4704 -1.6788 0.9595
-8.5998 7.4418 -1.8735 0.9549
-9.7670 7.0323 -1.9827 0.9524
-11.2777 4.1945 -1.9822 0.9524
4.9253 8.5525 -1.8550 0.9606
4.1398 8.9513 -1.8537 0.9607
2.4798 9.5301 -1.8509 0.9607
0.7459 9.8040 -1.8481 0.9608
-1.0064 9.7657 -1.8453 0.9608
-1.8720 9.6299 -1.8439 0.9609
-2.7216 9.4177 -1.8426 0.9609
-3.5483 9.1311 -1.8413 0.9609
-5.1076 8.3446 -1.8390 0.9610
-5.8282 7.8513 -1.8379 0.9610
-8.8662 5.7454 -1.9858 0.9579
-9.3405 4.9301 -1.9852 0.9579
-9.7406 4.0763 -1.9847 0.9579
-10.3069 2.2801 -1.9841 0.9579
-10.5479 0.4125 -1.9841 0.9579
-10.5436 -0.5300 -1.9843 0.9579
-10.4560 -1.4685 -1.9846 0.9579
-10.0339 -3.3047 -1.9856 0.9579
-9.2941 -5.0387 -1.9871 0.9579
-8.2591 -6.6164 -1.9891 0.9578
-6.9603 -7.9880 -1.9914 0.9578
-6.2241 -8.5826 -1.9927 0.9578
-5.4375 -9.1098 -1.9941 0.9577
1.8728 -10.5075 -2.0061 0.9575
3.7152 -10.0219 -2.0090 0.9574
4.5974 -9.6570 -2.0103 0.9574
5.4439 -9.2143 -2.0116 0.9574
6.2478 -8.6972 -2.0128 0.9574
7.0025 -8.1097 -2.0139 0.9573
7.7017 -7.4565 -2.0149 0.9573
8.9114 -5.9744 -2.0166 0.9573
9.8368 -4.2984 -2.0178 0.9572
10.4474 -2.4831 -2.0184 0.9572
10.6278 -1.5414 -2.0185 0.9572
10.7316 0.3714 -2.0183 0.9572
9.9142 4.0967 -2.0163 0.9573
9.5054 4.9627 -2.0155 0.9573
6.8990 7.6722 -1.9394 0.9589
5.9237 7.9054 -1.8568 0.9606
5.1914 8.3965 -1.8555 0.9606
4.4186 8.8198 -1.8542 0.9606
1.0522 9.7785 -1.8486 0.9608
0.1757 9.8259 -1.8472 0.9608
-1.5706 9.6861 -1.8444 0.9608
-2.4265 9.5005 -1.8431 0.9609
-3.2620 9.2397 -1.8418 0.9609
-4.0704 8.9060 -1.8405 0.9609
-4.8454 8.5020 -1.8393 0.9610
-7.4485 7.4403 -1.9788 0.9581
-8.1150 6.7735 -1.9868 0.9579
-9.1828 5.2201 -1.9854 0.9579
-9.9595 3.5038 -1.9845 0.9579
-10.4215 1.6782 -1.9841 0.9579
-10.3546 -2.0731 -1.9849 0.9579
-9.8274 -3.8822 -1.9861 0.9579
-8.9887 -5.5712 -1.9877 0.9579
-8.4602 -6.3539 -1.9887 0.9579
-7.2049 -7.7649 -1.9910 0.9578
-3.1559 -10.1504 -1.9980 0.9577
-2.2397 -10.3994 -1.9995 0.9576
-0.3569 -10.6482 -2.0026 0.9576
0.5948 -10.6457 -2.0041 0.9575
2.4805 -10.3860 -2.0071 0.9575
3.3994 -10.1306 -2.0085 0.9574
4.2924 -9.7937 -2.0099 0.9574
7.4637 -7.6922 -2.0146 0.9573
8.1238 -6.9991 -2.0155 0.9573
8.7192 -6.2491 -2.0163 0.9573
9.6969 -4.6034 -2.0176 0.9573
10.3643 -2.8082 -2.0183 0.9572
10.5743 -1.8727 -2.0185 0.9572
10.6993 -0.9221 -2.0185 0.9572
10.7383 0.0359 -2.0184 0.9572
10.6909 0.9934 -2.0181 0.9572
10.5577 1.9427 -2.0177 0.9572
10.0386 3.7854 -2.0166 0.9573
9.6573 4.6639 -2.0158 0.9573
9.1987 5.5042 -2.0149 0.9573
8.6668 6.2996 -2.0139 0.9573
5.4526 8.2322 -1.8560 0.9606
4.6933 8.6796 -1.8546 0.9606
3.0719 9.3615 -1.8519 0.9607
1.3576 9.7435 -1.8491 0.9608
-1.2675 9.7330 -1.8449 0.9608
-2.1290 9.5741 -1.8435 0.9609
-2.9724 9.3394 -1.8422 0.9609
-3.7910 9.0309 -1.8409 0.9609
-4.5784 8.6512 -1.8398 0.9609
-6.0355 7.6910 -1.8376 0.9610
-7.0128 7.4573 -1.9241 0.9592
-7.8979 7.0225 -1.9865 0.9579
-9.4685 4.6776 -1.9850 0.9579
-9.8458 3.8136 -1.9846 0.9579
-10.5013 1.0706 -1.9841 0.9579
-10.5554 0.1297 -1.9841 0.9579
-10.4135 -1.7484 -1.9847 0.9579
-9.9427 -3.5728 -1.9858 0.9579
-9.5879 -4.4470 -1.9866 0.9579
-9.1570 -5.2867 -1.9874 0.9579
-8.6531 -6.0854 -1.9884 0.9579
-5.1925 -9.2542 -1.9945 0.9577
-3.4707 -10.0442 -1.9974 0.9577
-2.5629 -10.3215 -1.9990 0.9576
-0.6892 -10.6290 -2.0020 0.9576
0.2618 -10.6562 -2.0036 0.9575
1.2121 -10.5984 -2.0051 0.9575
3.0804 -10.2294 -2.0080 0.9575
3.9833 -9.9207 -2.0094 0.9574
4.8555 -9.5322 -2.0107 0.9574
6.4797 -8.5281 -2.0132 0.9573
7.2184 -7.9204 -2.0142 0.9573
7.8999 -7.2484 -2.0152 0.9573
8.5185 -6.5177 -2.0161 0.9573
9.5474 -4.9037 -2.0174 0.9573
9.9492 -4.0335 -2.0179 0.9572
10.2710 -3.1306 -2.0182 0.9572
10.6653 -1.2560 -2.0185 0.9572
10.6140 1.6119 -2.0179 0.9572
10.4255 2.5516 -2.0174 0.9573
10.1533 3.4703 -2.0168 0.9573
9.7997 4.3605 -2.0161 0.9573
8.8610 6.0268 -2.0142 0.9573
8.2837 6.7895 -2.0132 0.9573
7.6239 7.4806 -2.0076 0.9575
6.5379 7.6748 -1.8950 0.9598
3.3638 9.2634 -1.8524 0.9607
1.6618 9.6989 -1.8496 0.9607
-2.6797 9.4300 -1.8427 0.9609
-3.5077 9.1471 -1.8414 0.9609
-5.0706 8.3676 -1.8390 0.9610
-6.5999 7.4730 -1.8740 0.9602
-9.7225 4.1197 -1.9847 0.9579
-10.0494 3.2355 -1.9844 0.9579
-10.2967 2.3260 -1.9841 0.9579
-10.4627 1.3982 -1.9841 0.9579
-10.5458 -0.4831 -1.9843 0.9579
-10.0483 -3.2600 -1.9856 0.9579
-9.7209 -4.1447 -1.9863 0.9579
-4.6489 -9.5443 -1.9955 0.9577
-2.8834 -10.2337 -1.9984 0.9576
-1.9606 -10.4580 -2.0000 0.9576
1.8260 -10.5153 -2.0060 0.9575
3.6705 -10.0380 -2.0089 0.9574
4.5543 -9.6771 -2.0103 0.9574
5.4027 -9.2382 -2.0116 0.9574
7.6683 -7.4905 -2.0149 0.9573
8.8846 -6.0139 -2.0165 0.9573
9.8175 -4.3421 -2.0177 0.9572
10.1677 -3.4498 -2.0181 0.9572
10.7332 0.3237 -2.0183 0.9572
10.2579 3.1516 -2.0170 0.9573
9.9325 4.0526 -2.0163 0.9573
9.5276 4.9204 -2.0155 0.9573
6.9606 7.6718 -1.9471 0.9587
4.4580 8.8004 -1.8542 0.9606
3.6526 9.1562 -1.8529 0.9607
2.8192 9.4384 -1.8515 0.9607
1.9647 9.6449 -1.8501 0.9607
0.2194 9.8254 -1.8472 0.9608
-0.6574 9.7983 -1.8458 0.9608
-3.2209 9.2545 -1.8418 0.9609
-4.0308 8.9243 -1.8406 0.9609
-5.5455 8.0561 -1.8383 0.9610
-8.0849 6.8097 -1.9869 0.9579
-8.6567 6.0590 -1.9861 0.9579
-9.1596 5.2610 -1.9854 0.9579
-10.5262 0.7888 -1.9841 0.9579
-10.5553 -0.1533 -1.9842 0.9579
-9.4664 -4.7030 -1.9868 0.9579
-7.8953 -7.0519 -1.9898 0.9578
-5.7576 -8.9074 -1.9936 0.9578
-4.9436 -9.3921 -1.9950 0.9577
-2.2858 -10.3889 -1.9994 0.9576
-0.4042 -10.6461 -2.0025 0.9576
0.5474 -10.6478 -2.0040 0.9575
1.4961 -10.5645 -2.0055 0.9575
2.4342 -10.3966 -2.0070 0.9575
5.1102 -9.4004 -2.0111 0.9574
5.9320 -8.9126 -2.0123 0.9574
6.7071 -8.3527 -2.0135 0.9573
8.0924 -7.0350 -2.0155 0.9573
8.6912 -6.2878 -2.0163 0.9573
9.2206 -5.4894 -2.0170 0.9573
10.5659 -1.9198 -2.0185 0.9572
10.6951 -0.9697 -2.0185 0.9572
10.6953 0.9458 -2.0182 0.9572
10.0556 3.7408 -2.0166 0.9573
9.2233 5.4634 -2.0149 0.9573
8.6949 6.2612 -2.0139 0.9573
8.0974 7.0079 -2.0128 0.9574
7.4072 7.6683 -2.0040 0.9575
5.4893 8.2081 -1.8560 0.9606
4.7320 8.6589 -1.8547 0.9606
3.9379 9.0399 -1.8534 0.9607
1.4010 9.7377 -1.8492 0.9607
0.5265 9.8163 -1.8477 0.9608
-1.2242 9.7389 -1.8449 0.9608
-2.0865 9.5838 -1.8436 0.9609
-2.9309 9.3529 -1.8423 0.9609
-6.9527 7.4596 -1.9167 0.9593
-8.9917 5.5453 -1.9856 0.9579
-9.4477 4.7197 -1.9851 0.9579
-9.8288 3.8574 -1.9846 0.9579
-10.3552 2.0491 -1.9841 0.9579
-10.4964 1.1173 -1.9841 0.9579
-10.5546 0.1766 -1.9841 0.9579
-10.5295 -0.7656 -1.9844 0.9579
-10.4211 -1.7020 -1.9847 0.9579
-9.9583 -3.5284 -1.9858 0.9579
-9.6074 -4.4042 -1.9865 0.9579
-8.6799 -6.0466 -1.9883 0.9579
-8.1103 -6.8003 -1.9894 0.9578
-7.4757 -7.5010 -1.9905 0.9578
-6.7811 -8.1429 -1.9918 0.9578
-6.0317 -8.7210 -1.9931 0.9578
-5.2334 -9.2307 -1.9945 0.9577
-4.3924 -9.6676 -1.9959 0.9577
-3.5152 -10.0283 -1.9974 0.9577
-1.6800 -10.5093 -2.0004 0.9576
0.2143 -10.6569 -2.0035 0.9575
3.9390 -9.9380 -2.0093 0.9574
4.8129 -9.5534 -2.0107 0.9574
5.6494 -9.0917 -2.0119 0.9574
6.4416 -8.5566 -2.0131 0.9573
9.9310 -4.0777 -2.0179 0.9572
10.7202 0.6112 -2.0183 0.9572
10.6212 1.5647 -2.0179 0.9572
10.4369 2.5052 -2.0174 0.9573
10.1688 3.4251 -2.0168 0.9573
9.8192 4.3169 -2.0161 0.9573
9.3910 5.1734 -2.0153 0.9573
8.8879 5.9875 -2.0143 0.9573
8.3141 6.7528 -2.0132 0.9573
7.6595 7.4488 -2.0082 0.9574
4.2196 8.9147 -1.8538 0.9607
3.4051 9.2487 -1.8525 0.9607
2.5647 9.5084 -1.8511 0.9607
1.7051 9.6918 -1.8497 0.9607
-1.7864 9.6468 -1.8441 0.9609
-3.4671 9.1629 -1.8414 0.9609
-4.2678 8.8113 -1.8402 0.9609
-6.5428 7.4752 -1.8672 0.9604
-7.6268 7.2853 -1.9825 0.9580
-9.7042 4.1630 -1.9848 0.9579
-10.5437 0.5064 -1.9841 0.9579
-10.4684 -1.3754 -1.9846 0.9579
-8.8630 -5.7714 -1.9880 0.9579
-8.3172 -6.5424 -1.9890 0.9578
-7.7048 -7.2622 -1.9901 0.9578
-6.2998 -8.5263 -1.9926 0.9578
-4.6911 -9.5232 -1.9954 0.9577
-2.0070 -10.4488 -1.9999 0.9576
-0.1188 -10.6555 -2.0029 0.9576
0.8328 -10.6317 -2.0045 0.9575
1.7791 -10.5230 -2.0060 0.9575
2.7125 -10.3299 -2.0074 0.9575
3.6257 -10.0538 -2.0089 0.9574
5.3614 -9.2618 -2.0115 0.9574
6.1698 -8.7520 -2.0127 0.9574
10.4248 -2.5759 -2.0184 0.9572
10.7172 -0.6827 -2.0185 0.9572
10.6656 1.2321 -2.0181 0.9572
10.2720 3.1060 -2.0171 0.9573
9.0723 5.7078 -2.0146 0.9573
8.5227 6.4909 -2.0136 0.9573
7.9053 7.2212 -2.0125 0.9574
5.2663 8.3506 -1.8556 0.9606
2.8613 9.4261 -1.8516 0.9607
1.1392 9.7695 -1.8487 0.9608
-0.6138 9.8015 -1.8459 0.9608
-3.1798 9.2690 -1.8419 0.9609
-3.9912 8.9424 -1.8406 0.9609
-6.2051 7.5531 -1.8373 0.9610
-7.3219 7.4453 -1.9628 0.9584
-8.6298 6.0976 -1.9861 0.9579
-9.1362 5.3018 -1.9855 0.9579
-9.9281 3.5924 -1.9845 0.9579
-10.2075 2.6922 -1.9842 0.9579
-10.4062 1.7708 -1.9841 0.9579
-10.5226 0.8356 -1.9841 0.9579
-10.1570 -2.8989 -1.9854 0.9579
-9.4871 -4.6607 -1.9868 0.9579
-7.9264 -7.0165 -1.9897 0.9578
-5.7970 -8.8814 -1.9935 0.9578
-4.9852 -9.3696 -1.9949 0.9577
-4.1326 -9.7840 -1.9963 0.9577
-3.2459 -10.1212 -1.9978 0.9577
-2.3319 -10.3782 -1.9993 0.9576
-1.3981 -10.5529 -2.0009 0.9576
-0.4515 -10.6438 -2.0024 0.9576
0.5000 -10.6497 -2.0039 0.9575
1.4490 -10.5707 -2.0055 0.9575
4.2048 -9.8309 -2.0097 0.9574
7.3946 -7.7580 -2.0145 0.9573
8.0609 -7.0708 -2.0154 0.9573
8.6630 -6.3262 -2.0163 0.9573
9.1959 -5.5303 -2.0170 0.9573
10.0373 -3.8103 -2.0180 0.9572
10.3388 -2.9003 -2.0183 0.9572
10.6995 0.8982 -2.0182 0.9572
10.5748 1.8487 -2.0178 0.9572
10.3651 2.7838 -2.0173 0.9573
9.6988 4.5780 -2.0159 0.9573
9.2477 5.4224 -2.0150 0.9573
8.7229 6.2226 -2.0140 0.9573
8.1287 6.9721 -2.0129 0.9573
7.4436 7.6376 -2.0046 0.9575
6.2512 7.6796 -1.8612 0.9605
5.5260 8.1839 -1.8561 0.9606
4.7707 8.6381 -1.8548 0.9606
3.9783 9.0226 -1.8534 0.9607
1.4443 9.7318 -1.8492 0.9607
0.5701 9.8143 -1.8478 0.9608
-3.7107 9.0649 -1.8411 0.9609
-5.2556 8.2509 -1.8387 0.9610
-6.8930 7.4619 -1.9094 0.9595
-7.8311 7.0889 -1.9854 0.9579
-8.9671 5.5853 -1.9857 0.9579
-9.4268 4.7618 -1.9851 0.9579
-9.8116 3.9011 -1.9846 0.9579
-10.1188 3.0099 -1.9843 0.9579
-10.3460 2.0952 -1.9841 0.9579
-10.4913 1.1640 -1.9841 0.9579
-10.4284 -1.6556 -1.9847 0.9579
-10.2416 -2.5798 -1.9852 0.9579
-9.9737 -3.4840 -1.9858 0.9579
-9.6267 -4.3613 -1.9865 0.9579
-9.2032 -5.2048 -1.9873 0.9579
-8.7065 -6.0078 -1.9883 0.9579
-8.1402 -6.7640 -1.9893 0.9578
-6.8170 -8.1124 -1.9917 0.9578
-6.0702 -8.6939 -1.9930 0.9578
-5.2742 -9.2070 -1.9944 0.9577
-3.5596 -10.0122 -1.9973 0.9577
-2.6544 -10.2975 -1.9988 0.9576
-1.7267 -10.5013 -2.0003 0.9576
-0.7837 -10.6216 -2.0019 0.9576
1.1177 -10.6080 -2.0049 0.9575
3.8946 -9.9551 -2.0093 0.9574
6.4033 -8.5849 -2.0130 0.9573
7.1473 -7.9839 -2.0141 0.9573
7.8347 -7.3181 -2.0151 0.9573
9.0176 -5.8143 -2.0167 0.9573
10.4903 -2.2957 -2.0184 0.9572
10.6537 -1.3509 -2.0185 0.9572
10.7315 -0.3952 -2.0185 0.9572
10.7229 0.5635 -2.0183 0.9572
10.6282 1.5174 -2.0179 0.9572
10.4480 2.4588 -2.0175 0.9573
9.4142 5.1316 -2.0153 0.9573
7.6949 7.4169 -2.0088 0.9574
5.7804 8.0091 -1.8565 0.9606
4.2594 8.8962 -1.8539 0.9607
3.4464 9.2338 -1.8525 0.9607
2.6070 9.4972 -1.8511 0.9607
1.7482 9.6845 -1.8497 0.9607
0.8768 9.7943 -1.8483 0.9608
-0.0003 9.8259 -1.8469 0.9608
-4.2286 8.8305 -1.8403 0.9609
-4.9963 8.4128 -1.8391 0.9610
-5.7234 7.9290 -1.8380 0.9610
-6.4862 7.4773 -1.8605 0.9605
-9.2742 5.0546 -1.9853 0.9579
-9.6856 4.2061 -1.9848 0.9579
-10.2757 2.4175 -1.9842 0.9579
-10.5413 0.5532 -1.9841 0.9579
-10.4743 -1.3288 -1.9845 0.9579
-10.3163 -2.2583 -1.9850 0.9579
-9.3599 -4.9139 -1.9870 0.9579
-7.0656 -7.8937 -1.9913 0.9578
-5.5580 -9.0354 -1.9939 0.9577
-3.8697 -9.8935 -1.9968 0.9577
-2.0534 -10.4394 -1.9998 0.9576
-0.1662 -10.6545 -2.0029 0.9576
0.7854 -10.6349 -2.0044 0.9575
2.6665 -10.3415 -2.0074 0.9575
4.4677 -9.7166 -2.0101 0.9574
6.1306 -8.7791 -2.0126 0.9574
6.8930 -8.2018 -2.0138 0.9573
7.6010 -7.5581 -2.0148 0.9573
9.7783 -4.4292 -2.0177 0.9573
10.6062 -1.6831 -2.0185 0.9572
10.7141 -0.7304 -2.0185 0.9572
10.2859 3.0604 -2.0171 0.9573
9.9685 3.9642 -2.0164 0.9573
9.5714 4.8356 -2.0156 0.9573
9.0978 5.6675 -2.0147 0.9573
7.9375 7.1862 -2.0125 0.9574
5.3036 8.3273 -1.8557 0.9606
4.5365 8.7610 -1.8544 0.9606
3.7342 9.1240 -1.8530 0.9607
2.9033 9.4136 -1.8516 0.9607
1.1827 9.7647 -1.8488 0.9608
-1.4414 9.7073 -1.8446 0.9608
-3.9515 8.9604 -1.8407 0.9609
-4.7319 8.5667 -1.8395 0.9610
-6.1716 7.5808 -1.8374 0.9610
-8.0244 6.8817 -1.9869 0.9579
-8.6028 6.1360 -1.9862 0.9579
-9.9121 3.6366 -1.9845 0.9579
-10.5188 0.8824 -1.9841 0.9579
-10.1697 -2.8536 -1.9853 0.9579
-9.8778 -3.7505 -1.9860 0.9579
-9.5075 -4.6183 -1.9867 0.9579
-9.0617 -5.4503 -1.9876 0.9579
-7.9573 -6.9809 -1.9897 0.9578
-7.3073 -7.6674 -1.9908 0.9578
-6.5984 -8.2938 -1.9921 0.9578
-5.0266 -9.3470 -1.9948 0.9577
-3.2908 -10.1063 -1.9977 0.9577
-2.3780 -10.3674 -1.9993 0.9576
-0.4989 -10.6412 -2.0023 0.9576
4.1609 -9.8492 -2.0097 0.9574
5.0261 -9.4449 -2.0110 0.9574
6.6321 -8.4116 -2.0134 0.9573
8.6345 -6.3646 -2.0162 0.9573
9.1711 -5.5710 -2.0169 0.9573
9.6342 -4.7322 -2.0175 0.9573
10.3257 -2.9463 -2.0183 0.9572
10.5483 -2.0137 -2.0185 0.9572
10.6861 -1.0649 -2.0185 0.9572
10.7380 -0.1074 -2.0184 0.9572
9.7192 4.5349 -2.0159 0.9573
8.7508 6.1839 -2.0140 0.9573
8.1599 6.9360 -2.0130 0.9573
7.4797 7.6066 -2.0052 0.9575
5.5625 8.1595 -1.8561 0.9606
4.0185 9.0052 -1.8535 0.9607
2.3511 9.5615 -1.8507 0.9607
-1.1376 9.7501 -1.8451 0.9608
-2.0012 9.6027 -1.8437 0.9609
-2.8477 9.3793 -1.8424 0.9609
-3.6705 9.0816 -1.8411 0.9609
-4.4629 8.7123 -1.8399 0.9609
-5.2190 8.2744 -1.8388 0.9610
-8.9423 5.6252 -1.9857 0.9579
-9.4056 4.8038 -1.9851 0.9579
-9.7943 3.9448 -1.9847 0.9579
-10.1054 3.0550 -1.9843 0.9579
-10.3366 2.1412 -1.9841 0.9579
-10.5357 -0.6718 -1.9843 0.9579
-10.4356 -1.6091 -1.9847 0.9579
-9.9890 -3.4396 -1.9857 0.9579
-9.2261 -5.1637 -1.9873 0.9579
-8.7329 -5.9688 -1.9882 0.9579
-7.5417 -7.4337 -1.9904 0.9578
-6.8528 -8.0817 -1.9916 0.9578
-5.3150 -9.1831 -1.9943 0.9577
-1.7733 -10.4931 -2.0003 0.9576
1.0705 -10.6125 -2.0049 0.9575
2.0142 -10.4825 -2.0063 0.9575
3.8502 -9.9720 -2.0092 0.9574
5.5680 -9.1411 -2.0118 0.9574
7.8019 -7.3527 -2.0151 0.9573
8.4303 -6.6304 -2.0159 0.9573
8.9914 -5.8543 -2.0167 0.9573
10.2281 -3.2673 -2.0182 0.9572
10.4800 -2.3423 -2.0184 0.9572
10.6476 -1.3983 -2.0185 0.9572
10.7254 0.5158 -2.0183 0.9572
10.6349 1.4702 -2.0180 0.9572
10.4590 2.4123 -2.0175 0.9573
10.1992 3.3346 -2.0169 0.9573
9.8576 4.2295 -2.0162 0.9573
8.3743 6.6789 -2.0133 0.9573
6.7157 7.6736 -1.9167 0.9593
5.8162 7.9835 -1.8566 0.9606
5.0774 8.4647 -1.8553 0.9606
2.6494 9.4859 -1.8512 0.9607
1.7914 9.6770 -1.8498 0.9607
0.0434 9.8262 -1.8470 0.9608
-0.8326 9.7835 -1.8456 0.9608
-1.7006 9.6630 -1.8442 0.9609
-2.5539 9.4660 -1.8429 0.9609
-4.9590 8.4352 -1.8392 0.9610
-10.2649 2.4633 -1.9842 0.9579
-10.5388 0.6001 -1.9841 0.9579
-10.4801 -1.2822 -1.9845 0.9579
-9.7748 -4.0143 -1.9862 0.9579
-9.3815 -4.8721 -1.9870 0.9579
-7.7687 -7.1929 -1.9900 0.9578
-6.3750 -8.4694 -1.9925 0.9578
-5.5980 -9.0103 -1.9938 0.9577
-3.9136 -9.8758 -1.9967 0.9577
0.7381 -10.6379 -2.0043 0.9575
1.6852 -10.5376 -2.0058 0.9575
6.0913 -8.8060 -2.0126 0.9574
6.8563 -8.2322 -2.0137 0.9573
8.2178 -6.8896 -2.0156 0.9573
8.8030 -6.1316 -2.0164 0.9573
10.1205 -3.5851 -2.0181 0.9572
10.4013 -2.6685 -2.0184 0.9572
10.5986 -1.7303 -2.0185 0.9572
10.7107 -0.7780 -2.0185 0.9572
10.6764 1.1371 -2.0181 0.9572
10.2995 3.0146 -2.0171 0.9573
9.9863 3.9199 -2.0165 0.9573
8.5805 6.4152 -2.0137 0.9573
7.9697 7.1510 -2.0126 0.9574
6.0642 7.7997 -1.8570 0.9606
5.3408 8.3039 -1.8558 0.9606
4.5756 8.7410 -1.8544 0.9606
3.7749 9.1076 -1.8531 0.9607
1.2262 9.7597 -1.8489 0.9608
-0.5265 9.8073 -1.8460 0.9608
-1.3982 9.7140 -1.8447 0.9608
-2.2574 9.5435 -1.8433 0.9609
-3.9117 8.9782 -1.8408 0.9609
-4.6939 8.5880 -1.8396 0.9609
-6.1380 7.6084 -1.8374 0.9610
-7.9938 6.9174 -1.9870 0.9579
-9.0890 5.3831 -1.9855 0.9579
-9.5302 4.5496 -1.9850 0.9579
-9.8959 3.6806 -1.9845 0.9579
-10.1833 2.7829 -1.9842 0.9579
-10.3901 1.8634 -1.9841 0.9579
-10.5147 0.9292 -1.9841 0.9579
4.4037 7.6469 -1.8653 0.9646
3.6801 7.9572 -1.8532 0.9648
2.9537 8.2483 -1.8519 0.9648
2.2048 8.4731 -1.8507 0.9648
0.6633 8.7182 -1.8482 0.9649
-0.1169 8.7366 -1.8469 0.9649
-0.8951 8.6855 -1.8457 0.9649
-1.6651 8.5654 -1.8444 0.9650
-3.8662 7.8046 -1.8411 0.9650
-5.5469 7.4723 -1.9671 0.9627
-7.4055 5.7985 -1.9881 0.9623
-7.8906 5.1131 -1.9875 0.9623
-9.3061 -1.3070 -1.9864 0.9623
-8.9299 -2.9411 -1.9873 0.9623
-8.2708 -4.4840 -1.9887 0.9623
-7.8412 -5.2060 -1.9895 0.9623
-7.3490 -5.8873 -1.9904 0.9622
-4.8369 -8.1037 -1.9949 0.9622
-3.3244 -8.8455 -1.9975 0.9621
-1.7022 -9.3080 -2.0002 0.9621
-0.8658 -9.4292 -2.0015 0.9620
0.8245 -9.4458 -2.0042 0.9620
1.6648 -9.3408 -2.0056 0.9620
4.0860 -8.5828 -2.0093 0.9619
4.8380 -8.1887 -2.0105 0.9619
5.5520 -7.7286 -2.0115 0.9618
6.2222 -7.2061 -2.0125 0.9618
6.8432 -6.6253 -2.0134 0.9618
7.4098 -5.9909 -2.0142 0.9618
7.9173 -5.3079 -2.0149 0.9618
8.3616 -4.5819 -2.0154 0.9618
9.2810 -2.2058 -2.0165 0.9617
9.5256 -0.5217 -2.0165 0.9617
9.3202 2.0179 -2.0157 0.9618
9.1007 2.8405 -2.0152 0.9618
8.4456 4.4093 -2.0139 0.9618
5.6801 7.5803 -2.0023 0.9620
3.9278 7.8401 -1.8536 0.9648
1.7086 8.5830 -1.8499 0.9649
0.1562 8.7381 -1.8473 0.9649
-1.3970 8.6152 -1.8449 0.9649
-2.9018 8.2195 -1.8425 0.9650
-3.6212 7.9232 -1.8414 0.9650
-4.3110 7.5643 -1.8404 0.9650
-5.2017 7.4851 -1.9267 0.9634
-6.6578 6.6506 -1.9892 0.9623
-7.2216 6.0278 -1.9884 0.9623
-7.7278 5.3578 -1.9877 0.9623
-8.5523 3.8974 -1.9867 0.9623
-8.8643 3.1185 -1.9863 0.9623
-9.1060 2.3152 -1.9861 0.9623
-9.2756 1.4936 -1.9859 0.9623
-9.3418 -1.0155 -1.9863 0.9623
-7.9988 -4.9576 -1.9892 0.9623
-6.4103 -6.9085 -1.9921 0.9622
