ply
format ascii 1.0
element vertex 1594
property float32 x
property float32 y
property float32 z
property float32 I
end_header
4.9640 2.5850 -2.0014 0.9765
4.7137 3.0175 -2.0014 0.9765
4.4257 3.4258 -2.0014 0.9765
3.7466 4.1577 -2.0014 0.9765
2.9483 4.7572 -2.0014 0.9765
2.0561 5.2054 -2.0014 0.9765
1.0985 5.4879 -2.0014 0.9765
0.1059 5.5957 -2.0014 0.9765
-0.8900 5.5255 -2.0014 0.9765
-2.3211 5.0927 -2.0014 0.9765
-2.7661 4.8654 -2.0014 0.9765
-3.1890 4.5993 -2.0014 0.9765
-3.5866 4.2965 -2.0014 0.9765
-4.2929 3.5909 -2.0014 0.9765
-4.8626 2.7710 -2.0014 0.9765
-5.2776 1.8629 -2.0014 0.9765
-5.5825 0.3993 -2.0014 0.9765
-5.5958 -0.1003 -2.0014 0.9765
-5.2075 -2.0508 -2.0014 0.9765
-5.0038 -2.5071 -2.0014 0.9765
-4.7602 -2.9434 -2.0014 0.9765
-4.4787 -3.3563 -2.0014 0.9765
-4.1615 -3.7424 -2.0014 0.9765
-3.4303 -4.4222 -2.0014 0.9765
-2.5900 -4.9614 -2.0014 0.9765
-2.1372 -5.1726 -2.0014 0.9765
-1.1841 -5.4701 -2.0014 0.9765
0.3063 -5.5883 -2.0014 0.9765
1.2944 -5.4450 -2.0014 0.9765
1.7749 -5.3079 -2.0014 0.9765
2.2412 -5.1284 -2.0014 0.9765
3.1168 -4.6486 -2.0014 0.9765
3.5190 -4.3520 -2.0014 0.9765
3.8931 -4.0208 -2.0014 0.9765
4.8187 -2.8467 -2.0014 0.9765
5.2478 -1.9452 -2.0014 0.9765
5.5100 -0.9818 -2.0014 0.9765
5.5756 -0.4864 -2.0014 0.9765
5.5967 0.0128 -2.0014 0.9765
5.0424 2.4286 -2.0014 0.9765
4.2195 3.6769 -2.0014 0.9765
3.8747 4.0386 -2.0014 0.9765
3.0955 4.6628 -2.0014 0.9765
2.2177 5.1386 -2.0014 0.9765
1.7506 5.3159 -2.0014 0.9765
0.7782 5.5424 -2.0014 0.9765
0.2807 5.5897 -2.0014 0.9765
-1.6917 5.3350 -2.0014 0.9765
-2.6127 4.9495 -2.0014 0.9765
-3.0438 4.6967 -2.0014 0.9765
-3.4505 4.4065 -2.0014 0.9765
-4.4940 3.3358 -2.0014 0.9765
-4.7737 2.9216 -2.0014 0.9765
-5.3768 1.5536 -2.0014 0.9765
-5.5673 0.5735 -2.0014 0.9765
-5.5963 0.0746 -2.0014 0.9765
-5.5806 -0.4248 -2.0014 0.9765
-5.5205 -0.9209 -2.0014 0.9765
-5.2690 -1.8871 -2.0014 0.9765
-5.0797 -2.3495 -2.0014 0.9765
-4.5814 -3.2147 -2.0014 0.9765
-4.2764 -3.6105 -2.0014 0.9765
-3.9373 -3.9775 -2.0014 0.9765
-3.1679 -4.6138 -2.0014 0.9765
-2.2977 -5.1033 -2.0014 0.9765
-1.8334 -5.2879 -2.0014 0.9765
0.1315 -5.5952 -2.0014 0.9765
1.1236 -5.4828 -2.0014 0.9765
2.0799 -5.1959 -2.0014 0.9765
2.5350 -4.9897 -2.0014 0.9765
2.9700 -4.7437 -2.0014 0.9765
4.9758 -2.5622 -2.0014 0.9765
5.1845 -2.1082 -2.0014 0.9765
5.3519 -1.6374 -2.0014 0.9765
5.4766 -1.1535 -2.0014 0.9765
5.5342 0.8345 -2.0014 0.9765
5.4377 1.3248 -2.0014 0.9765
5.2979 1.8045 -2.0014 0.9765
5.1158 2.2699 -2.0014 0.9765
4.8929 2.7171 -2.0014 0.9765
3.9990 3.9155 -2.0014 0.9765
3.6338 4.2566 -2.0014 0.9765
2.3772 5.0668 -2.0014 0.9765
1.4391 5.4086 -2.0014 0.9765
0.9510 5.5154 -2.0014 0.9765
0.4553 5.5782 -2.0014 0.9765
-0.0441 5.5966 -2.0014 0.9765
-0.5431 5.5703 -2.0014 0.9765
-1.9985 5.2278 -2.0014 0.9765
-2.8955 4.7895 -2.0014 0.9765
-3.3112 4.5122 -2.0014 0.9765
-4.3876 3.4746 -2.0014 0.9765
-4.6800 3.0694 -2.0014 0.9765
-5.5911 -0.2502 -2.0014 0.9765
-5.3254 -1.7215 -2.0014 0.9765
-4.6796 -3.0700 -2.0014 0.9765
-4.0597 -3.8526 -2.0014 0.9765
-2.8949 -4.7899 -2.0014 0.9765
-1.0371 -5.4998 -2.0014 0.9765
0.4560 -5.5781 -2.0014 0.9765
0.9517 -5.5152 -2.0014 0.9765
1.9165 -5.2584 -2.0014 0.9765
2.3779 -5.0665 -2.0014 0.9765
3.2403 -4.5634 -2.0014 0.9765
5.1161 -2.2692 -2.0014 0.9765
5.2981 -1.8038 -2.0014 0.9765
5.4379 -1.3241 -2.0014 0.9765
5.5343 -0.8338 -2.0014 0.9765
5.4764 1.1542 -2.0014 0.9765
5.3517 1.6381 -2.0014 0.9765
5.1842 2.1089 -2.0014 0.9765
4.7270 2.9965 -2.0014 0.9765
4.4409 3.4061 -2.0014 0.9765
4.1194 3.7887 -2.0014 0.9765
2.0792 5.1962 -2.0014 0.9765
1.1229 5.4830 -2.0014 0.9765
-0.8654 5.5294 -2.0014 0.9765
-1.3552 5.4302 -2.0014 0.9765
-2.2984 5.1030 -2.0014 0.9765
-2.7444 4.8777 -2.0014 0.9765
-3.1685 4.6134 -2.0014 0.9765
-4.8502 2.7926 -2.0014 0.9765
-5.2693 1.8864 -2.0014 0.9765
-5.5962 -0.0754 -2.0014 0.9765
-5.5672 -0.5742 -2.0014 0.9765
-5.4938 -1.0685 -2.0014 0.9765
-5.2165 -2.0277 -2.0014 0.9765
-5.0149 -2.4848 -2.0014 0.9765
-4.7733 -2.9222 -2.0014 0.9765
-4.1781 -3.7239 -2.0014 0.9765
-3.4500 -4.4070 -2.0014 0.9765
-1.6910 -5.3352 -2.0014 0.9765
-1.2084 -5.4647 -2.0014 0.9765
0.2815 -5.5897 -2.0014 0.9765
0.7789 -5.5423 -2.0014 0.9765
1.7513 -5.3157 -2.0014 0.9765
2.2184 -5.1383 -2.0014 0.9765
3.0961 -4.6624 -2.0014 0.9765
3.8752 -4.0381 -2.0014 0.9765
4.2199 -3.6764 -2.0014 0.9765
4.5311 -3.2853 -2.0014 0.9765
5.0427 -2.4279 -2.0014 0.9765
5.3938 -1.4934 -2.0014 0.9765
5.5055 -1.0063 -2.0014 0.9765
5.5098 0.9825 -2.0014 0.9765
5.0531 2.4062 -2.0014 0.9765
4.8183 2.8473 -2.0014 0.9765
3.5184 4.3525 -2.0014 0.9765
2.6891 4.9084 -2.0014 0.9765
2.2406 5.1287 -2.0014 0.9765
1.7742 5.3081 -2.0014 0.9765
0.8028 5.5389 -2.0014 0.9765
0.3056 5.5884 -2.0014 0.9765
-1.1848 5.4699 -2.0014 0.9765
-1.6680 5.3424 -2.0014 0.9765
-2.1379 5.1724 -2.0014 0.9765
-3.0228 4.7102 -2.0014 0.9765
-4.7606 2.9428 -2.0014 0.9765
-5.0041 2.5065 -2.0014 0.9765
-5.3698 1.5775 -2.0014 0.9765
-5.5824 -0.4000 -2.0014 0.9765
-5.5245 -0.8963 -2.0014 0.9765
-5.0901 -2.3269 -2.0014 0.9765
-4.5956 -3.1943 -2.0014 0.9765
-4.2924 -3.5915 -2.0014 0.9765
-3.1884 -4.5997 -2.0014 0.9765
-2.3204 -5.0930 -2.0014 0.9765
0.1067 -5.5957 -2.0014 0.9765
0.6054 -5.5639 -2.0014 0.9765
1.5843 -5.3678 -2.0014 0.9765
2.5128 -5.0009 -2.0014 0.9765
2.9489 -4.7568 -2.0014 0.9765
3.3614 -4.4749 -2.0014 0.9765
3.7472 -4.1572 -2.0014 0.9765
4.1030 -3.8064 -2.0014 0.9765
4.9644 -2.5843 -2.0014 0.9765
5.3445 -1.6612 -2.0014 0.9765
5.5546 -0.6851 -2.0014 0.9765
5.5936 -0.1869 -2.0014 0.9765
4.9050 2.6954 -2.0014 0.9765
4.6450 3.1221 -2.0014 0.9765
4.3480 3.5240 -2.0014 0.9765
4.0164 3.8977 -2.0014 0.9765
3.2599 4.5493 -2.0014 0.9765
2.8411 4.8220 -2.0014 0.9765
0.9755 5.5111 -2.0014 0.9765
0.4800 5.5761 -2.0014 0.9765
-0.5183 5.5727 -2.0014 0.9765
-1.5002 5.3919 -2.0014 0.9765
-1.9752 5.2366 -2.0014 0.9765
-2.8742 4.8024 -2.0014 0.9765
-3.2911 4.5268 -2.0014 0.9765
-3.6817 4.2153 -2.0014 0.9765
-4.0431 3.8701 -2.0014 0.9765
-4.3721 3.4940 -2.0014 0.9765
-5.3179 1.7445 -2.0014 0.9765
-5.4523 1.2632 -2.0014 0.9765
-5.5900 0.2743 -2.0014 0.9765
-5.5922 -0.2254 -2.0014 0.9765
-5.5498 -0.7232 -2.0014 0.9765
-5.1603 -2.1667 -2.0014 0.9765
-4.6932 -3.0491 -2.0014 0.9765
-2.9161 -4.7770 -2.0014 0.9765
-2.0210 -5.2191 -2.0014 0.9765
-0.0683 -5.5963 -2.0014 0.9765
0.4312 -5.5801 -2.0014 0.9765
1.8931 -5.2668 -2.0014 0.9765
-5.2227 0.0000 -2.0014 0.9779
-5.1396 -0.9280 -2.0014 0.9779
-5.0364 -1.3827 -2.0014 0.9779
-4.4906 -2.6667 -2.0014 0.9779
-4.2348 -3.0566 -2.0014 0.9779
-3.6244 -3.7604 -2.0014 0.9779
-3.2745 -4.0687 -2.0014 0.9779
-2.8985 -4.3446 -2.0014 0.9779
-2.4995 -4.5858 -2.0014 0.9779
-2.0805 -4.7904 -2.0014 0.9779
-1.1962 -5.0839 -2.0014 0.9779
-0.7380 -5.1703 -2.0014 0.9779
-0.2739 -5.2155 -2.0014 0.9779
0.1924 -5.2192 -2.0014 0.9779
0.6571 -5.1812 -2.0014 0.9779
1.1167 -5.1019 -2.0014 0.9779
1.5673 -4.9820 -2.0014 0.9779
2.4275 -4.6243 -2.0014 0.9779
2.8303 -4.3893 -2.0014 0.9779
3.2105 -4.1194 -2.0014 0.9779
3.5652 -3.8166 -2.0014 0.9779
4.4484 -2.7365 -2.0014 0.9779
4.6747 -2.3289 -2.0014 0.9779
5.1940 -0.5471 -2.0014 0.9779
5.2085 0.3845 -2.0014 0.9779
5.1535 0.8475 -2.0014 0.9779
5.0573 1.3038 -2.0014 0.9779
4.9209 1.7497 -2.0014 0.9779
4.7452 2.1817 -2.0014 0.9779
4.5317 2.5962 -2.0014 0.9779
4.2821 2.9901 -2.0014 0.9779
3.3377 4.0170 -2.0014 0.9779
2.9661 4.2987 -2.0014 0.9779
2.1551 4.7573 -2.0014 0.9779
1.7222 4.9306 -2.0014 0.9779
1.2755 5.0646 -2.0014 0.9779
0.3554 5.2106 -2.0014 0.9779
-0.1108 5.2215 -2.0014 0.9779
-0.5761 5.1908 -2.0014 0.9779
-2.7614 4.4330 -2.0014 0.9779
-3.5051 3.8718 -2.0014 0.9779
-3.8365 3.5438 -2.0014 0.9779
-4.1373 3.1875 -2.0014 0.9779
-4.9907 1.5394 -2.0014 0.9779
-5.1848 0.6282 -2.0014 0.9779
-5.2202 0.1632 -2.0014 0.9779
-5.1661 -0.7669 -2.0014 0.9779
-5.0771 -1.2246 -2.0014 0.9779
-4.5717 -2.5251 -2.0014 0.9779
-4.3283 -2.9228 -2.0014 0.9779
-4.0503 -3.2972 -2.0014 0.9779
-3.7401 -3.6453 -2.0014 0.9779
-3.0329 -4.2518 -2.0014 0.9779
-2.6416 -4.5054 -2.0014 0.9779
-2.2292 -4.7231 -2.0014 0.9779
-1.7990 -4.9031 -2.0014 0.9779
-1.3545 -5.0440 -2.0014 0.9779
-0.8992 -5.1447 -2.0014 0.9779
-0.4367 -5.2044 -2.0014 0.9779
0.0292 -5.2226 -2.0014 0.9779
0.4949 -5.1992 -2.0014 0.9779
1.4108 -5.0285 -2.0014 0.9779
1.8537 -4.8827 -2.0014 0.9779
2.6918 -4.4756 -2.0014 0.9779
3.0802 -4.2177 -2.0014 0.9779
4.3607 -2.8742 -2.0014 0.9779
4.5997 -2.4738 -2.0014 0.9779
5.2180 0.2216 -2.0014 0.9779
5.1774 0.6861 -2.0014 0.9779
4.8111 2.0323 -2.0014 0.9779
4.3734 2.8548 -2.0014 0.9779
3.7966 3.5864 -2.0014 0.9779
3.0990 4.2039 -2.0014 0.9779
2.7116 4.4636 -2.0014 0.9779
2.3027 4.6877 -2.0014 0.9779
1.4332 5.0222 -2.0014 0.9779
0.9795 5.1300 -2.0014 0.9779
0.5180 5.1969 -2.0014 0.9779
-0.4136 5.2063 -2.0014 0.9779
-3.3824 3.9795 -2.0014 0.9779
-4.0356 3.3152 -2.0014 0.9779
-4.3152 2.9420 -2.0014 0.9779
-4.5605 2.5454 -2.0014 0.9779
-4.7693 2.1285 -2.0014 0.9779
-4.9402 1.6946 -2.0014 0.9779
-5.0716 1.2472 -2.0014 0.9779
-5.2208 -0.1400 -2.0014 0.9779
-5.1875 -0.6051 -2.0014 0.9779
-5.1129 -1.0654 -2.0014 0.9779
-4.4175 -2.7861 -2.0014 0.9779
-3.8522 -3.5267 -2.0014 0.9779
-2.7810 -4.4207 -2.0014 0.9779
-2.3757 -4.6511 -2.0014 0.9779
-1.5115 -4.9992 -2.0014 0.9779
-0.1340 -5.2210 -2.0014 0.9779
0.7958 -5.1617 -2.0014 0.9779
1.2530 -5.0702 -2.0014 0.9779
1.7002 -4.9382 -2.0014 0.9779
2.1339 -4.7669 -2.0014 0.9779
2.9469 -4.3119 -2.0014 0.9779
4.2687 -3.0091 -2.0014 0.9779
5.1497 -0.8704 -2.0014 0.9779
5.2068 -0.4076 -2.0014 0.9779
5.2224 0.0584 -2.0014 0.9779
5.0206 1.4389 -2.0014 0.9779
4.8722 1.8810 -2.0014 0.9779
4.6850 2.3081 -2.0014 0.9779
3.9068 3.4660 -2.0014 0.9779
3.5821 3.8007 -2.0014 0.9779
2.0268 4.8134 -2.0014 0.9779
1.5894 4.9750 -2.0014 0.9779
0.2156 5.2183 -2.0014 0.9779
-0.2507 5.2167 -2.0014 0.9779
-0.7150 5.1735 -2.0014 0.9779
-1.1736 5.0891 -2.0014 0.9779
-1.6229 4.9642 -2.0014 0.9779
-2.0592 4.7996 -2.0014 0.9779
-2.4791 4.5968 -2.0014 0.9779
-2.8792 4.3574 -2.0014 0.9779
-3.6076 3.7765 -2.0014 0.9779
-3.9301 3.4397 -2.0014 0.9779
-4.2212 3.0754 -2.0014 0.9779
-4.7005 2.2765 -2.0014 0.9779
-4.8848 1.8481 -2.0014 0.9779
-5.1354 0.9508 -2.0014 0.9779
-5.1998 0.4890 -2.0014 0.9779
-5.2227 0.0232 -2.0014 0.9779
-5.2039 -0.4427 -2.0014 0.9779
-5.0425 -1.3603 -2.0014 0.9779
-4.9010 -1.8046 -2.0014 0.9779
-4.7205 -2.2346 -2.0014 0.9779
-4.5024 -2.6467 -2.0014 0.9779
-4.2484 -3.0377 -2.0014 0.9779
-3.9605 -3.4046 -2.0014 0.9779
-1.2188 -5.0785 -2.0014 0.9779
-0.7610 -5.1670 -2.0014 0.9779
0.6341 -5.1841 -2.0014 0.9779
1.0940 -5.1068 -2.0014 0.9779
1.9839 -4.8312 -2.0014 0.9779
2.4069 -4.6350 -2.0014 0.9779
2.8108 -4.4018 -2.0014 0.9779
3.5481 -3.8324 -2.0014 0.9779
4.4362 -2.7563 -2.0014 0.9779
4.6643 -2.3497 -2.0014 0.9779
4.8553 -1.9242 -2.0014 0.9779
5.0076 -1.4835 -2.0014 0.9779
5.1915 -0.5701 -2.0014 0.9779
5.2217 -0.1048 -2.0014 0.9779
5.0631 1.2813 -2.0014 0.9779
4.7549 2.1605 -2.0014 0.9779
4.5432 2.5760 -2.0014 0.9779
4.2953 2.9710 -2.0014 0.9779
4.0132 3.3423 -2.0014 0.9779
3.6991 3.6869 -2.0014 0.9779
3.3555 4.0022 -2.0014 0.9779
2.9852 4.2855 -2.0014 0.9779
2.5910 4.5347 -2.0014 0.9779
1.7441 4.9229 -2.0014 0.9779
1.2980 5.0588 -2.0014 0.9779
0.3785 5.2090 -2.0014 0.9779
-0.0876 5.2220 -2.0014 0.9779
-0.5530 5.1933 -2.0014 0.9779
-1.0140 5.1233 -2.0014 0.9779
-1.4670 5.0125 -2.0014 0.9779
-2.3342 4.6721 -2.0014 0.9779
-2.7416 4.4452 -2.0014 0.9779
-3.1272 4.1830 -2.0014 0.9779
-3.4878 3.8874 -2.0014 0.9779
-4.9838 1.5616 -2.0014 0.9779
-5.1032 1.1108 -2.0014 0.9779
-4.0649 -3.2792 -2.0014 0.9779
-3.7563 -3.6287 -2.0014 0.9779
-3.4176 -3.9492 -2.0014 0.9779
-2.6616 -4.4936 -2.0014 0.9779
-2.2501 -4.7131 -2.0014 0.9779
-1.8208 -4.8950 -2.0014 0.9779
-1.3769 -5.0379 -2.0014 0.9779
-0.9221 -5.1407 -2.0014 0.9779
0.4718 -5.2013 -2.0014 0.9779
1.3885 -5.0348 -2.0014 0.9779
1.8320 -4.8908 -2.0014 0.9779
2.2609 -4.7080 -2.0014 0.9779
2.6719 -4.4875 -2.0014 0.9779
4.3479 -2.8936 -2.0014 0.9779
4.9588 -1.6393 -2.0014 0.9779
5.0852 -1.1904 -2.0014 0.9779
5.2158 -0.2679 -2.0014 0.9779
5.1804 0.6631 -2.0014 0.9779
4.8201 2.0109 -2.0014 0.9779
4.6215 2.4328 -2.0014 0.9779
4.3861 2.8353 -2.0014 0.9779
4.1157 3.2152 -2.0014 0.9779
3.1176 4.1901 -2.0014 0.9779
2.7315 4.4515 -2.0014 0.9779
1.8971 4.8660 -2.0014 0.9779
1.4555 5.0158 -2.0014 0.9779
-0.8534 5.1525 -2.0014 0.9779
-1.7553 4.9189 -2.0014 0.9779
-2.6014 4.5287 -2.0014 0.9779
-3.7075 3.6784 -2.0014 0.9779
-4.0209 3.3331 -2.0014 0.9779
-4.3021 2.9612 -2.0014 0.9779
-4.7598 2.1496 -2.0014 0.9779
-4.9326 1.7165 -2.0014 0.9779
-5.1591 0.8128 -2.0014 0.9779
-5.1902 -0.5820 -2.0014 0.9779
-5.1176 -1.0426 -2.0014 0.9779
-5.0042 -1.4950 -2.0014 0.9779
-4.8509 -1.9353 -2.0014 0.9779
-4.4298 -2.7664 -2.0014 0.9779
-3.8678 -3.5095 -2.0014 0.9779
-3.1827 -4.1409 -2.0014 0.9779
-2.3963 -4.6405 -2.0014 0.9779
-1.5337 -4.9924 -2.0014 0.9779
-1.0823 -5.1093 -2.0014 0.9779
-0.6222 -5.1855 -2.0014 0.9779
1.2304 -5.0757 -2.0014 0.9779
2.5303 -4.5688 -2.0014 0.9779
2.9277 -4.3249 -2.0014 0.9779
3.6496 -3.7359 -2.0014 0.9779
4.9051 -1.7934 -2.0014 0.9779
5.2049 -0.4308 -2.0014 0.9779
5.0269 1.4166 -2.0014 0.9779
4.2142 3.0851 -2.0014 0.9779
3.5990 3.7847 -2.0014 0.9779
3.2470 4.0907 -2.0014 0.9779
2.4685 4.6025 -2.0014 0.9779
1.6115 4.9679 -2.0014 0.9779
1.1620 5.0918 -2.0014 0.9779
0.7032 5.1752 -2.0014 0.9779
0.2388 5.2173 -2.0014 0.9779
-0.2275 5.2178 -2.0014 0.9779
-1.1510 5.0943 -2.0014 0.9779
-1.6008 4.9713 -2.0014 0.9779
-2.4586 4.6078 -2.0014 0.9779
-3.9147 3.4571 -2.0014 0.9779
-4.6903 2.2974 -2.0014 0.9779
-4.8765 1.8698 -2.0014 0.9779
-5.0239 1.4274 -2.0014 0.9779
-5.2058 -0.4196 -2.0014 0.9779
-5.0485 -1.3378 -2.0014 0.9779
-4.7304 -2.2136 -2.0014 0.9779
-3.6576 -3.7280 -2.0014 0.9779
-3.3105 -4.0394 -2.0014 0.9779
-2.9371 -4.3186 -2.0014 0.9779
-2.5401 -4.5634 -2.0014 0.9779
-2.1230 -4.7717 -2.0014 0.9779
-1.2414 -5.0730 -2.0014 0.9779
-0.7840 -5.1635 -2.0014 0.9779
-0.3203 -5.2129 -2.0014 0.9779
0.1460 -5.2207 -2.0014 0.9779
1.0713 -5.1117 -2.0014 0.9779
2.3863 -4.6457 -2.0014 0.9779
2.7912 -4.4143 -2.0014 0.9779
3.1738 -4.1478 -2.0014 0.9779
4.1586 -3.1595 -2.0014 0.9779
4.6538 -2.3704 -2.0014 0.9779
5.1153 -1.0537 -2.0014 0.9779
5.1889 -0.5932 -2.0014 0.9779
5.2118 0.3382 -2.0014 0.9779
4.9363 1.7059 -2.0014 0.9779
4.7644 2.1394 -2.0014 0.9779
4.3085 2.9519 -2.0014 0.9779
3.7155 3.6704 -2.0014 0.9779
3.3733 3.9872 -2.0014 0.9779
1.3205 5.0530 -2.0014 0.9779
0.8645 5.1507 -2.0014 0.9779
0.4017 5.2072 -2.0014 0.9779
-0.0644 5.2223 -2.0014 0.9779
-0.5299 5.1958 -2.0014 0.9779
-1.8866 4.8701 -2.0014 0.9779
-2.3134 4.6824 -2.0014 0.9779
-3.1086 4.1969 -2.0014 0.9779
-3.8048 3.5777 -2.0014 0.9779
-4.3800 2.8448 -2.0014 0.9779
-4.8157 2.0213 -2.0014 0.9779
-4.9768 1.5837 -2.0014 0.9779
-5.1790 0.6742 -2.0014 0.9779
-5.2185 0.2096 -2.0014 0.9779
-5.2164 -0.2567 -2.0014 0.9779
-4.9623 -1.6285 -2.0014 0.9779
-4.5940 -2.4843 -2.0014 0.9779
-4.3541 -2.8842 -2.0014 0.9779
-3.0706 -4.2247 -2.0014 0.9779
-2.2711 -4.7031 -2.0014 0.9779
-1.8425 -4.8869 -2.0014 0.9779
-1.3993 -5.0317 -2.0014 0.9779
-0.9449 -5.1365 -2.0014 0.9779
-0.4830 -5.2003 -2.0014 0.9779
0.4487 -5.2034 -2.0014 0.9779
1.3661 -5.0409 -2.0014 0.9779
1.8102 -4.8990 -2.0014 0.9779
2.2400 -4.7180 -2.0014 0.9779
2.6519 -4.4994 -2.0014 0.9779
3.0426 -4.2449 -2.0014 0.9779
3.4091 -3.9566 -2.0014 0.9779
3.7484 -3.6367 -2.0014 0.9779
4.7835 -2.0963 -2.0014 0.9779
5.0799 -1.2130 -2.0014 0.9779
5.1678 -0.7551 -2.0014 0.9779
5.2198 0.1751 -2.0014 0.9779
3.4962 3.8798 -2.0014 0.9779
3.1362 4.1762 -2.0014 0.9779
2.7512 4.4393 -2.0014 0.9779
2.3443 4.6670 -2.0014 0.9779
1.9187 4.8575 -2.0014 0.9779
1.4778 5.0093 -2.0014 0.9779
1.0251 5.1211 -2.0014 0.9779
0.0988 5.2218 -2.0014 0.9779
-0.8305 5.1563 -2.0014 0.9779
-1.2871 5.0616 -2.0014 0.9779
-2.1660 4.7524 -2.0014 0.9779
-2.9759 4.2919 -2.0014 0.9779
-4.2889 2.9803 -2.0014 0.9779
-4.7502 2.1708 -2.0014 0.9779
-5.2219 -0.0936 -2.0014 0.9779
-5.1927 -0.5590 -2.0014 0.9779
-5.1222 -1.0199 -2.0014 0.9779
-5.0108 -1.4727 -2.0014 0.9779
-4.4421 -2.7467 -2.0014 0.9779
-3.8834 -3.4923 -2.0014 0.9779
-3.5564 -3.8247 -2.0014 0.9779
-2.8202 -4.3958 -2.0014 0.9779
-2.4169 -4.6298 -2.0014 0.9779
-1.9943 -4.8269 -2.0014 0.9779
-1.5558 -4.9856 -2.0014 0.9779
-1.1050 -5.1045 -2.0014 0.9779
-0.6453 -5.1827 -2.0014 0.9779
-0.1804 -5.2196 -2.0014 0.9779
0.2859 -5.2149 -2.0014 0.9779
0.7498 -5.1686 -2.0014 0.9779
2.0915 -4.7857 -2.0014 0.9779
3.2838 -4.0612 -2.0014 0.9779
3.6330 -3.7521 -2.0014 0.9779
4.8971 -1.8152 -2.0014 0.9779
5.1417 -0.9162 -2.0014 0.9779
5.2029 -0.4539 -2.0014 0.9779
5.2227 0.0120 -2.0014 0.9779
5.2008 0.4778 -2.0014 0.9779
5.0332 1.3942 -2.0014 0.9779
4.7054 2.2663 -2.0014 0.9779
4.4845 2.6770 -2.0014 0.9779
3.9375 3.4312 -2.0014 0.9779
3.2652 4.0762 -2.0014 0.9779
2.8886 4.3512 -2.0014 0.9779
2.0695 4.7952 -2.0014 0.9779
0.7262 5.1720 -2.0014 0.9779
-0.2043 5.2187 -2.0014 0.9779
-0.6690 5.1797 -2.0014 0.9779
-2.4381 4.6187 -2.0014 0.9779
-2.8403 4.3828 -2.0014 0.9779
-4.4546 2.7264 -2.0014 0.9779
-4.6800 2.3182 -2.0014 0.9779
-4.8682 1.8915 -2.0014 0.9779
-5.1268 0.9964 -2.0014 0.9779
-5.2222 0.0697 -2.0014 0.9779
-5.2076 -0.3964 -2.0014 0.9779
-4.9169 -1.7610 -2.0014 0.9779
-4.7402 -2.1925 -2.0014 0.9779
-4.2752 -2.9999 -2.0014 0.9779
-3.9906 -3.3692 -2.0014 0.9779
-3.3285 -4.0247 -2.0014 0.9779
-2.9562 -4.3055 -2.0014 0.9779
-2.5604 -4.5520 -2.0014 0.9779
-2.1442 -4.7623 -2.0014 0.9779
-0.8069 -5.1600 -2.0014 0.9779
0.5880 -5.1895 -2.0014 0.9779
1.9409 -4.8487 -2.0014 0.9779
2.3656 -4.6562 -2.0014 0.9779
2.7715 -4.4267 -2.0014 0.9779
3.1553 -4.1618 -2.0014 0.9779
3.5139 -3.8638 -2.0014 0.9779
3.8446 -3.5350 -2.0014 0.9779
4.1445 -3.1780 -2.0014 0.9779
4.4115 -2.7956 -2.0014 0.9779
4.6432 -2.3910 -2.0014 0.9779
4.8380 -1.9673 -2.0014 0.9779
5.2205 -0.1512 -2.0014 0.9779
5.2132 0.3150 -2.0014 0.9779
5.0743 1.2363 -2.0014 0.9779
4.3216 2.9327 -2.0014 0.9779
4.0428 3.3065 -2.0014 0.9779
3.3910 3.9722 -2.0014 0.9779
3.0231 4.2588 -2.0014 0.9779
2.2184 4.7282 -2.0014 0.9779
1.7878 4.9072 -2.0014 0.9779
0.4248 5.2054 -2.0014 0.9779
-0.5068 5.1981 -2.0014 0.9779
-0.9684 5.1321 -2.0014 0.9779
-1.4223 5.0253 -2.0014 0.9779
-2.7020 4.4694 -2.0014 0.9779
-4.0944 3.2424 -2.0014 0.9779
-4.3673 2.8642 -2.0014 0.9779
-4.6053 2.4633 -2.0014 0.9779
-4.8067 2.0427 -2.0014 0.9779
-4.9697 1.6058 -2.0014 0.9779
-5.0931 1.1562 -2.0014 0.9779
-5.0930 -1.1568 -2.0014 0.9779
-4.6050 -2.4639 -2.0014 0.9779
-4.3669 -2.8648 -2.0014 0.9779
-4.0940 -3.2429 -2.0014 0.9779
-3.7884 -3.5951 -2.0014 0.9779
-3.4526 -3.9187 -2.0014 0.9779
-2.2920 -4.6929 -2.0014 0.9779
-1.4217 -5.0255 -2.0014 0.9779
-0.5061 -5.1981 -2.0014 0.9779
0.4255 -5.2053 -2.0014 0.9779
0.8881 -5.1466 -2.0014 0.9779
1.7884 -4.9070 -2.0014 0.9779
2.2190 -4.7279 -2.0014 0.9779
2.6318 -4.5111 -2.0014 0.9779
4.0432 -3.3059 -2.0014 0.9779
4.5663 -2.5349 -2.0014 0.9779
4.7742 -2.1175 -2.0014 0.9779
5.2132 -0.3143 -2.0014 0.9779
5.2205 0.1519 -2.0014 0.9779
4.6429 2.3916 -2.0014 0.9779
4.4111 2.7962 -2.0014 0.9779
4.1441 3.1785 -2.0014 0.9779
3.8441 3.5355 -2.0014 0.9779
2.7709 4.4270 -2.0014 0.9779
1.5000 5.0027 -2.0014 0.9779
-1.2646 5.0673 -2.0014 0.9779
-1.7115 4.9343 -2.0014 0.9779
-2.1448 4.7620 -2.0014 0.9779
-2.5610 4.5517 -2.0014 0.9779
-2.9568 4.3051 -2.0014 0.9779
-3.6747 3.7113 -2.0014 0.9779
-3.9911 3.3687 -2.0014 0.9779
-4.2756 2.9993 -2.0014 0.9779
-4.5261 2.6060 -2.0014 0.9779
-4.7405 2.1919 -2.0014 0.9779
-4.9171 1.7603 -2.0014 0.9779
-5.0545 1.3147 -2.0014 0.9779
-5.1516 0.8587 -2.0014 0.9779
-5.2077 0.3957 -2.0014 0.9779
-5.2222 -0.0703 -2.0014 0.9779
-5.1951 -0.5359 -2.0014 0.9779
-5.0173 -1.4504 -2.0014 0.9779
-4.8679 -1.8921 -2.0014 0.9779
-4.1933 -3.1134 -2.0014 0.9779
-3.8989 -3.4750 -2.0014 0.9779
-3.5734 -3.8089 -2.0014 0.9779
-2.8398 -4.3832 -2.0014 0.9779
-2.4375 -4.6190 -2.0014 0.9779
-1.1276 -5.0995 -2.0014 0.9779
-0.6683 -5.1798 -2.0014 0.9779
0.2627 -5.2161 -2.0014 0.9779
1.1853 -5.0864 -2.0014 0.9779
1.6342 -4.9604 -2.0014 0.9779
2.0702 -4.7949 -2.0014 0.9779
2.4896 -4.5911 -2.0014 0.9779
2.8892 -4.3508 -2.0014 0.9779
3.2657 -4.0758 -2.0014 0.9779
3.6162 -3.7682 -2.0014 0.9779
3.9379 -3.4307 -2.0014 0.9779
4.4848 -2.6764 -2.0014 0.9779
4.7057 -2.2657 -2.0014 0.9779
5.1376 -0.9390 -2.0014 0.9779
5.2009 -0.4771 -2.0014 0.9779
5.1416 0.9169 -2.0014 0.9779
4.8969 1.8158 -2.0014 0.9779
4.4963 2.6570 -2.0014 0.9779
4.2414 3.0475 -2.0014 0.9779
3.9527 3.4136 -2.0014 0.9779
3.6325 3.7526 -2.0014 0.9779
2.9079 4.3383 -2.0014 0.9779
2.5094 4.5804 -2.0014 0.9779
2.0908 4.7859 -2.0014 0.9779
1.2072 5.0813 -2.0014 0.9779
0.7492 5.1687 -2.0014 0.9779
-0.1811 5.2196 -2.0014 0.9779
-3.5569 3.8243 -2.0014 0.9779
-3.8839 3.4918 -2.0014 0.9779
-4.1798 3.1314 -2.0014 0.9779
-4.6697 2.3390 -2.0014 0.9779
-4.8597 1.9131 -2.0014 0.9779
-5.0110 1.4720 -2.0014 0.9779
-5.1928 0.5583 -2.0014 0.9779
-5.0601 -1.2929 -2.0014 0.9779
-4.9247 -1.7391 -2.0014 0.9779
-4.7499 -2.1714 -2.0014 0.9779
-4.0055 -3.3515 -2.0014 0.9779
-3.6906 -3.6954 -2.0014 0.9779
-2.1653 -4.7527 -2.0014 0.9779
-1.7328 -4.9269 -2.0014 0.9779
-0.8298 -5.1563 -2.0014 0.9779
0.5649 -5.1921 -2.0014 0.9779
1.0258 -5.1210 -2.0014 0.9779
1.4784 -5.0091 -2.0014 0.9779
1.9193 -4.8573 -2.0014 0.9779
2.7518 -4.4389 -2.0014 0.9779
3.4967 -3.8794 -2.0014 0.9779
4.1304 -3.1964 -2.0014 0.9779
4.8292 -1.9888 -2.0014 0.9779
5.1834 -0.6394 -2.0014 0.9779
5.2198 -0.1744 -2.0014 0.9779
5.2146 0.2918 -2.0014 0.9779
4.7833 2.0970 -2.0014 0.9779
4.5772 2.5152 -2.0014 0.9779
4.3346 2.9134 -2.0014 0.9779
4.0574 3.2885 -2.0014 0.9779
3.0420 4.2453 -2.0014 0.9779
2.6513 4.4997 -2.0014 0.9779
2.2394 4.7183 -2.0014 0.9779
1.8096 4.8992 -2.0014 0.9779
0.4480 5.2035 -2.0014 0.9779
-0.0179 5.2227 -2.0014 0.9779
-0.4837 5.2003 -2.0014 0.9779
-1.8432 4.8867 -2.0014 0.9779
-2.6821 4.4814 -2.0014 0.9779
-3.4357 3.9336 -2.0014 0.9779
-4.0799 3.2605 -2.0014 0.9779
-4.9625 1.6279 -2.0014 0.9779
-5.2185 -0.2103 -2.0014 0.9779
-5.0981 -1.1342 -2.0014 0.9779
-4.8154 -2.0219 -2.0014 0.9779
-4.6159 -2.4434 -2.0014 0.9779
-4.3796 -2.8453 -2.0014 0.9779
-4.1083 -3.2246 -2.0014 0.9779
-3.1080 -4.1972 -2.0014 0.9779
0.4024 -5.2072 -2.0014 0.9779
1.7666 -4.9149 -2.0014 0.9779
2.1979 -4.7377 -2.0014 0.9779
-1.9579 -0.1753 -0.8045 0.9915
-4.5814 -1.7101 -2.0014 0.9791
-3.9652 -2.8620 -2.0014 0.9791
-3.6941 -3.2043 -2.0014 0.9791
-3.3936 -3.5210 -2.0014 0.9791
-2.3403 -4.2938 -2.0014 0.9791
-1.9480 -4.4854 -2.0014 0.9791
-1.1201 -4.7602 -2.0014 0.9791
-0.6910 -4.8411 -2.0014 0.9791
-0.2565 -4.8835 -2.0014 0.9791
0.1801 -4.8869 -2.0014 0.9791
0.6153 -4.8513 -2.0014 0.9791
1.0456 -4.7771 -2.0014 0.9791
1.4675 -4.6648 -2.0014 0.9791
2.6501 -4.1099 -2.0014 0.9791
3.3382 -3.5736 -2.0014 0.9791
4.3771 -2.1806 -2.0014 0.9791
4.8633 -0.5122 -2.0014 0.9791
4.8896 -0.0764 -2.0014 0.9791
4.8769 0.3600 -2.0014 0.9791
4.7354 1.2208 -2.0014 0.9791
4.6076 1.6383 -2.0014 0.9791
4.2432 2.4309 -2.0014 0.9791
4.0095 2.7997 -2.0014 0.9791
3.7438 3.1462 -2.0014 0.9791
3.4482 3.4675 -2.0014 0.9791
3.1252 3.7613 -2.0014 0.9791
2.0179 4.4545 -2.0014 0.9791
1.6125 4.6167 -2.0014 0.9791
0.7666 4.8297 -2.0014 0.9791
0.3327 4.8789 -2.0014 0.9791
-0.5394 4.8604 -2.0014 0.9791
-0.9708 4.7929 -2.0014 0.9791
-2.5856 4.1508 -2.0014 0.9791
-3.5922 3.3182 -2.0014 0.9791
-4.3425 2.2487 -2.0014 0.9791
-4.5258 1.8524 -2.0014 0.9791
-4.7829 1.0188 -2.0014 0.9791
-1.9540 0.2367 -0.8056 0.9915
-1.9273 0.0603 -0.7892 0.9917
-1.9458 -0.1131 -0.7977 0.9916
-1.9472 -0.2891 -0.8057 0.9915
-4.7539 -1.1467 -2.0014 0.9791
-4.6326 -1.5661 -2.0014 0.9791
-4.4745 -1.9731 -2.0014 0.9791
-4.2807 -2.3643 -2.0014 0.9791
-3.7925 -3.0873 -2.0014 0.9791
-2.8398 -3.9812 -2.0014 0.9791
-2.0872 -4.4224 -2.0014 0.9791
-1.2683 -4.7229 -2.0014 0.9791
0.8958 -4.8075 -2.0014 0.9791
1.3210 -4.7084 -2.0014 0.9791
1.7357 -4.5718 -2.0014 0.9791
2.1366 -4.3988 -2.0014 0.9791
2.8841 -3.9492 -2.0014 0.9791
3.2249 -3.6762 -2.0014 0.9791
3.5399 -3.3739 -2.0014 0.9791
3.8267 -3.0447 -2.0014 0.9791
4.0831 -2.6912 -2.0014 0.9791
4.3068 -2.3163 -2.0014 0.9791
4.4963 -1.9229 -2.0014 0.9791
4.6499 -1.5142 -2.0014 0.9791
4.8848 -0.2292 -2.0014 0.9791
4.8858 0.2075 -2.0014 0.9791
4.6565 1.4935 -2.0014 0.9791
4.5048 1.9029 -2.0014 0.9791
3.5549 3.3581 -2.0014 0.9791
3.2412 3.6618 -2.0014 0.9791
2.5390 4.1794 -2.0014 0.9791
2.1561 4.3892 -2.0014 0.9791
1.7560 4.5640 -2.0014 0.9791
0.0491 4.8900 -2.0014 0.9791
-1.2473 4.7285 -2.0014 0.9791
-1.6640 4.5984 -2.0014 0.9791
-2.0676 4.4316 -2.0014 0.9791
-2.4546 4.2296 -2.0014 0.9791
-3.7787 3.1041 -2.0014 0.9791
-4.0405 2.7547 -2.0014 0.9791
-4.2701 2.3833 -2.0014 0.9791
-4.6256 1.5867 -2.0014 0.9791
-1.9821 0.3033 -0.8206 0.9914
-1.9236 -0.0516 -0.7876 0.9917
-1.9552 -0.2281 -0.8056 0.9915
-4.6793 -1.4206 -2.0014 0.9791
-4.3525 -2.2294 -2.0014 0.9791
-3.2980 -3.6107 -2.0014 0.9791
-2.9628 -3.8905 -2.0014 0.9791
-2.6040 -4.1392 -2.0014 0.9791
-1.8271 -4.5360 -2.0014 0.9791
-0.9921 -4.7885 -2.0014 0.9791
-0.1255 -4.8886 -2.0014 0.9791
1.5920 -4.6238 -2.0014 0.9791
2.3882 -4.2674 -2.0014 0.9791
2.7593 -4.0374 -2.0014 0.9791
3.4328 -3.4828 -2.0014 0.9791
3.7297 -3.1628 -2.0014 0.9791
3.9970 -2.8175 -2.0014 0.9791
4.2323 -2.4498 -2.0014 0.9791
4.4340 -2.0625 -2.0014 0.9791
4.6003 -1.6588 -2.0014 0.9791
4.7299 -1.2419 -2.0014 0.9791
4.8899 0.0547 -2.0014 0.9791
4.8655 0.4906 -2.0014 0.9791
4.5620 1.7612 -2.0014 0.9791
3.9330 2.9062 -2.0014 0.9791
3.6581 3.2454 -2.0014 0.9791
2.6684 4.0980 -2.0014 0.9791
2.2922 4.3197 -2.0014 0.9791
1.8978 4.5070 -2.0014 0.9791
1.4882 4.6583 -2.0014 0.9791
1.0668 4.7724 -2.0014 0.9791
-2.3212 4.3042 -2.0014 0.9791
-2.6959 4.0800 -2.0014 0.9791
-4.1935 2.5156 -2.0014 0.9791
-4.4012 2.1315 -2.0014 0.9791
-4.5738 1.7305 -2.0014 0.9791
-4.7099 1.3156 -2.0014 0.9791
-1.9025 0.0085 -0.7786 0.9918
-1.9575 -0.1665 -0.8040 0.9915
-4.7214 -1.2737 -2.0014 0.9791
-4.5890 -1.6897 -2.0014 0.9791
-3.9779 -2.8443 -2.0014 0.9791
-3.4092 -3.5059 -2.0014 0.9791
-2.7321 -4.0558 -2.0014 0.9791
-2.3594 -4.2834 -2.0014 0.9791
-1.9679 -4.4767 -2.0014 0.9791
-1.5608 -4.6344 -2.0014 0.9791
-1.1412 -4.7552 -2.0014 0.9791
0.5937 -4.8540 -2.0014 0.9791
1.0243 -4.7817 -2.0014 0.9791
1.4467 -4.6713 -2.0014 0.9791
1.8576 -4.5236 -2.0014 0.9791
2.9889 -3.8704 -2.0014 0.9791
4.1537 -2.5808 -2.0014 0.9791
4.3674 -2.2000 -2.0014 0.9791
4.5462 -1.8017 -2.0014 0.9791
4.7940 -0.9653 -2.0014 0.9791
4.8610 -0.5338 -2.0014 0.9791
4.8892 -0.0981 -2.0014 0.9791
4.8289 0.7721 -2.0014 0.9791
4.6148 1.6178 -2.0014 0.9791
4.2540 2.4120 -2.0014 0.9791
4.0219 2.7818 -2.0014 0.9791
3.1419 3.7474 -2.0014 0.9791
1.6330 4.6095 -2.0014 0.9791
0.7881 4.8263 -2.0014 0.9791
0.3544 4.8773 -2.0014 0.9791
-0.0820 4.8895 -2.0014 0.9791
-0.5178 4.8627 -2.0014 0.9791
-0.9495 4.7971 -2.0014 0.9791
-2.1856 4.3746 -2.0014 0.9791
-2.5671 4.1622 -2.0014 0.9791
-2.9281 3.9167 -2.0014 0.9791
-3.2658 3.6399 -2.0014 0.9791
-3.5774 3.3341 -2.0014 0.9791
-3.8605 3.0017 -2.0014 0.9791
-4.1129 2.6454 -2.0014 0.9791
-4.6665 1.4621 -2.0014 0.9791
-4.7783 1.0401 -2.0014 0.9791
-1.9526 0.2454 -0.8054 0.9915
-1.9432 -0.1043 -0.7964 0.9916
-1.9449 -0.2799 -0.8042 0.9915
-4.4832 -1.9532 -2.0014 0.9791
-4.2911 -2.3453 -2.0014 0.9791
-2.8575 -3.9685 -2.0014 0.9791
-2.4921 -4.2075 -2.0014 0.9791
-2.1069 -4.4131 -2.0014 0.9791
-1.7049 -4.5834 -2.0014 0.9791
-1.2893 -4.7172 -2.0014 0.9791
-0.8634 -4.8134 -2.0014 0.9791
-0.4306 -4.8712 -2.0014 0.9791
0.4418 -4.8702 -2.0014 0.9791
4.0710 -2.7093 -2.0014 0.9791
4.2965 -2.3354 -2.0014 0.9791
4.4877 -1.9429 -2.0014 0.9791
4.6431 -1.5349 -2.0014 0.9791
4.8419 -0.6855 -2.0014 0.9791
4.8506 0.6209 -2.0014 0.9791
4.7759 1.0510 -2.0014 0.9791
4.5132 1.8829 -2.0014 0.9791
4.1068 2.6548 -2.0014 0.9791
3.8537 3.0105 -2.0014 0.9791
3.2574 3.6474 -2.0014 0.9791
2.5576 4.1681 -2.0014 0.9791
2.1756 4.3796 -2.0014 0.9791
1.7763 4.5562 -2.0014 0.9791
0.9385 4.7993 -2.0014 0.9791
-0.7991 4.8245 -2.0014 0.9791
-1.2262 4.7340 -2.0014 0.9791
-1.6436 4.6057 -2.0014 0.9791
-3.1504 3.7401 -2.0014 0.9791
-3.4715 3.4442 -2.0014 0.9791
-4.4568 2.0128 -2.0014 0.9791
-4.6185 1.6073 -2.0014 0.9791
-2.0178 0.3179 -0.8360 0.9912
-1.9504 0.1308 -0.8000 0.9916
-1.9198 -0.0429 -0.7859 0.9917
-4.6856 -1.3998 -2.0014 0.9791
-4.3623 -2.2100 -2.0014 0.9791
-4.1478 -2.5903 -2.0014 0.9791
-3.9002 -2.9500 -2.0014 0.9791
-3.3140 -3.5960 -2.0014 0.9791
-2.9801 -3.8773 -2.0014 0.9791
-2.6224 -4.1276 -2.0014 0.9791
-1.4360 -4.6746 -2.0014 0.9791
-0.5826 -4.8554 -2.0014 0.9791
-0.1472 -4.8880 -2.0014 0.9791
0.2894 -4.8816 -2.0014 0.9791
0.7236 -4.8364 -2.0014 0.9791
1.5714 -4.6308 -2.0014 0.9791
2.7413 -4.0496 -2.0014 0.9791
4.2214 -2.4685 -2.0014 0.9791
4.4248 -2.0822 -2.0014 0.9791
4.7243 -1.2629 -2.0014 0.9791
4.8181 -0.8364 -2.0014 0.9791
4.8735 -0.4034 -2.0014 0.9791
4.8677 0.4690 -2.0014 0.9791
4.7069 1.3264 -2.0014 0.9791
4.3963 2.1416 -2.0014 0.9791
4.1878 2.5252 -2.0014 0.9791
3.9459 2.8886 -2.0014 0.9791
3.3698 3.5438 -2.0014 0.9791
3.0403 3.8302 -2.0014 0.9791
2.3114 4.3095 -2.0014 0.9791
1.5089 4.6516 -2.0014 0.9791
0.6584 4.8457 -2.0014 0.9791
-0.6479 4.8471 -2.0014 0.9791
-1.0777 4.7700 -2.0014 0.9791
-1.4989 4.6548 -2.0014 0.9791
-1.9081 4.5026 -2.0014 0.9791
-3.0320 3.8368 -2.0014 0.9791
-3.3622 3.5511 -2.0014 0.9791
-3.9396 2.8971 -2.0014 0.9791
-4.3917 2.1511 -2.0014 0.9791
-2.2080 0.4190 -0.9198 0.9903
-1.9578 0.1929 -0.8052 0.9915
-1.9070 0.0170 -0.7805 0.9918
-1.9560 -0.1576 -0.8031 0.9916
-4.5965 -1.6693 -2.0014 0.9791
-4.2267 -2.4594 -2.0014 0.9791
-3.7225 -3.1713 -2.0014 0.9791
-3.4248 -3.4907 -2.0014 0.9791
-2.7501 -4.0437 -2.0014 0.9791
-1.9878 -4.4679 -2.0014 0.9791
-1.5814 -4.6274 -2.0014 0.9791
-0.2999 -4.8810 -2.0014 0.9791
0.1367 -4.8883 -2.0014 0.9791
0.5721 -4.8566 -2.0014 0.9791
1.0031 -4.7862 -2.0014 0.9791
1.8375 -4.5319 -2.0014 0.9791
3.6145 -3.2939 -2.0014 0.9791
4.3575 -2.2194 -2.0014 0.9791
4.5381 -1.8219 -2.0014 0.9791
4.6826 -1.4099 -2.0014 0.9791
4.7896 -0.9866 -2.0014 0.9791
4.8585 -0.5554 -2.0014 0.9791
4.8887 -0.1199 -2.0014 0.9791
4.8799 0.3166 -2.0014 0.9791
4.8323 0.7506 -2.0014 0.9791
4.2646 2.3931 -2.0014 0.9791
3.7716 3.1128 -2.0014 0.9791
3.4789 3.4367 -2.0014 0.9791
3.1585 3.7334 -2.0014 0.9791
2.8129 4.0002 -2.0014 0.9791
2.0574 4.4363 -2.0014 0.9791
1.2365 4.7313 -2.0014 0.9791
0.3761 4.8757 -2.0014 0.9791
-0.0603 4.8898 -2.0014 0.9791
-0.4962 4.8650 -2.0014 0.9791
-0.9281 4.8013 -2.0014 0.9791
-1.3527 4.6994 -2.0014 0.9791
-2.5486 4.1736 -2.0014 0.9791
-2.9107 3.9296 -2.0014 0.9791
-3.2496 3.6544 -2.0014 0.9791
-3.8472 3.0188 -2.0014 0.9791
-4.1011 2.6637 -2.0014 0.9791
-4.3223 2.2873 -2.0014 0.9791
-4.5091 1.8926 -2.0014 0.9791
-4.6600 1.4829 -2.0014 0.9791
-1.9510 0.2540 -0.8052 0.9915
-1.9342 0.0777 -0.7922 0.9917
-1.9404 -0.0955 -0.7951 0.9916
-1.9471 -0.2714 -0.8046 0.9915
-4.4918 -1.9332 -2.0014 0.9791
-4.3015 -2.3262 -2.0014 0.9791
-4.0769 -2.7005 -2.0014 0.9791
-3.8198 -3.0534 -2.0014 0.9791
-3.5322 -3.3820 -2.0014 0.9791
-0.8848 -4.8095 -2.0014 0.9791
-0.0161 -4.8902 -2.0014 0.9791
0.4201 -4.8721 -2.0014 0.9791
1.6950 -4.5871 -2.0014 0.9791
2.4830 -4.2129 -2.0014 0.9791
3.7995 -3.0786 -2.0014 0.9791
4.0590 -2.7274 -2.0014 0.9791
4.2861 -2.3545 -2.0014 0.9791
4.4790 -1.9628 -2.0014 0.9791
4.7565 -1.1358 -2.0014 0.9791
4.8388 -0.7070 -2.0014 0.9791
4.8875 0.1640 -2.0014 0.9791
4.7805 1.0298 -2.0014 0.9791
4.5215 1.8628 -2.0014 0.9791
2.9366 3.9103 -2.0014 0.9791
0.9598 4.7951 -2.0014 0.9791
0.5283 4.8616 -2.0014 0.9791
0.0926 4.8893 -2.0014 0.9791
-0.3439 4.8781 -2.0014 0.9791
-0.7777 4.8280 -2.0014 0.9791
-2.0281 4.4498 -2.0014 0.9791
-2.7865 4.0187 -2.0014 0.9791
-3.1338 3.7541 -2.0014 0.9791
-4.2487 2.4212 -2.0014 0.9791
-4.4478 2.0326 -2.0014 0.9791
-4.6113 1.6278 -2.0014 0.9791
-2.0544 0.3330 -0.8518 0.9910
-1.9157 -0.0343 -0.7842 0.9918
-1.9569 -0.2107 -0.8055 0.9915
-4.7960 -0.9549 -2.0014 0.9791
-4.5501 -1.7919 -2.0014 0.9791
-4.3721 -2.1906 -2.0014 0.9791
-4.1593 -2.5719 -2.0014 0.9791
-3.9133 -2.9326 -2.0014 0.9791
-3.6361 -3.2699 -2.0014 0.9791
-2.6407 -4.1159 -2.0014 0.9791
-2.2630 -4.3350 -2.0014 0.9791
-0.1689 -4.8873 -2.0014 0.9791
0.2676 -4.8829 -2.0014 0.9791
0.7021 -4.8395 -2.0014 0.9791
1.1310 -4.7576 -2.0014 0.9791
1.5508 -4.6378 -2.0014 0.9791
1.9583 -4.4810 -2.0014 0.9791
2.7233 -4.0617 -2.0014 0.9791
3.0747 -3.8026 -2.0014 0.9791
3.4017 -3.5132 -2.0014 0.9791
4.2104 -2.4873 -2.0014 0.9791
4.4155 -2.1018 -2.0014 0.9791
4.5853 -1.6996 -2.0014 0.9791
4.8717 -0.4250 -2.0014 0.9791
4.7127 1.3054 -2.0014 0.9791
4.5775 1.7206 -2.0014 0.9791
4.4058 2.1220 -2.0014 0.9791
3.9587 2.8711 -2.0014 0.9791
3.6868 3.2127 -2.0014 0.9791
3.0573 3.8167 -2.0014 0.9791
2.7047 4.0742 -2.0014 0.9791
1.1092 4.7628 -2.0014 0.9791
-0.6264 4.8499 -2.0014 0.9791
-1.0565 4.7747 -2.0014 0.9791
-1.4782 4.6614 -2.0014 0.9791
-2.6595 4.1038 -2.0014 0.9791
-3.0149 3.8502 -2.0014 0.9791
-3.6511 3.2533 -2.0014 0.9791
-4.1710 2.5528 -2.0014 0.9791
-4.5582 1.7711 -2.0014 0.9791
-4.8004 0.9330 -2.0014 0.9791
-1.9575 0.2017 -0.8054 0.9915
-2.0932 -0.3492 -0.8685 0.9909
-4.6038 -1.6489 -2.0014 0.9791
-4.4384 -2.0529 -2.0014 0.9791
-4.2376 -2.4406 -2.0014 0.9791
-4.0030 -2.8089 -2.0014 0.9791
-3.7365 -3.1547 -2.0014 0.9791
-3.1166 -3.7684 -2.0014 0.9791
-2.7680 -4.0314 -2.0014 0.9791
-2.3974 -4.2622 -2.0014 0.9791
-2.0077 -4.4591 -2.0014 0.9791
-1.6020 -4.6204 -2.0014 0.9791
0.9818 -4.7906 -2.0014 0.9791
1.4052 -4.6840 -2.0014 0.9791
2.2150 -4.3598 -2.0014 0.9791
2.5951 -4.1448 -2.0014 0.9791
2.9544 -3.8969 -2.0014 0.9791
4.1306 -2.6176 -2.0014 0.9791
4.5300 -1.8421 -2.0014 0.9791
4.7852 -1.0079 -2.0014 0.9791
4.8560 -0.5771 -2.0014 0.9791
4.8813 0.2949 -2.0014 0.9791
4.6290 1.5767 -2.0014 0.9791
4.4700 1.9833 -2.0014 0.9791
4.2752 2.3741 -2.0014 0.9791
4.0464 2.7460 -2.0014 0.9791
3.7854 3.0959 -2.0014 0.9791
3.4942 3.4212 -2.0014 0.9791
2.8307 3.9876 -2.0014 0.9791
1.2575 4.7258 -2.0014 0.9791
0.3978 4.8740 -2.0014 0.9791
-0.9068 4.8054 -2.0014 0.9791
-1.3318 4.7054 -2.0014 0.9791
-1.7462 4.5678 -2.0014 0.9791
-2.5300 4.1849 -2.0014 0.9791
-2.8932 3.9425 -2.0014 0.9791
-3.2333 3.6688 -2.0014 0.9791
-3.5476 3.3658 -2.0014 0.9791
-3.8337 3.0359 -2.0014 0.9791
-4.5007 1.9126 -2.0014 0.9791
-4.7689 1.0825 -2.0014 0.9791
-1.9492 0.2626 -0.8050 0.9915
-1.9491 -0.2628 -0.8049 0.9915
-4.6531 -1.5042 -2.0014 0.9791
-4.5004 -1.9132 -2.0014 0.9791
-4.0889 -2.6824 -2.0014 0.9791
-3.8333 -3.0364 -2.0014 0.9791
-3.2328 -3.6692 -2.0014 0.9791
-2.8926 -3.9429 -2.0014 0.9791
-2.1460 -4.3942 -2.0014 0.9791
-0.9061 -4.8055 -2.0014 0.9791
-0.4739 -4.8672 -2.0014 0.9791
-0.0379 -4.8901 -2.0014 0.9791
0.3984 -4.8739 -2.0014 0.9791
0.8316 -4.8190 -2.0014 0.9791
1.2581 -4.7256 -2.0014 0.9791
2.4643 -4.2239 -2.0014 0.9791
4.2756 -2.3735 -2.0014 0.9791
4.4702 -1.9827 -2.0014 0.9791
4.6292 -1.5761 -2.0014 0.9791
4.7514 -1.1569 -2.0014 0.9791
4.8356 -0.7285 -2.0014 0.9791
4.8881 0.1423 -2.0014 0.9791
4.7851 1.0085 -2.0014 0.9791
4.6760 1.4313 -2.0014 0.9791
4.5298 1.8427 -2.0014 0.9791
4.3473 2.2394 -2.0014 0.9791
3.2897 3.6182 -2.0014 0.9791
2.2144 4.3601 -2.0014 0.9791
1.8167 4.5402 -2.0014 0.9791
0.9811 4.7908 -2.0014 0.9791
0.5499 4.8592 -2.0014 0.9791
0.1143 4.8889 -2.0014 0.9791
-0.7562 4.8314 -2.0014 0.9791
-1.6026 4.6202 -2.0014 0.9791
-2.0083 4.4588 -2.0014 0.9791
-2.7685 4.0310 -2.0014 0.9791
-3.1171 3.7680 -2.0014 0.9791
-3.4407 3.4750 -2.0014 0.9791
-3.7370 3.1542 -2.0014 0.9791
-4.0034 2.8083 -2.0014 0.9791
-4.2379 2.4401 -2.0014 0.9791
-4.6041 1.6483 -2.0014 0.9791
-4.7327 1.2310 -2.0014 0.9791
-2.0920 0.3487 -0.8680 0.9909
-1.9543 0.1485 -0.8021 0.9916
-1.9575 -0.2019 -0.8054 0.9915
-4.6978 -1.3580 -2.0014 0.9791
-4.5580 -1.7717 -2.0014 0.9791
-4.3818 -2.1712 -2.0014 0.9791
-3.3459 -3.5664 -2.0014 0.9791
-2.6590 -4.1041 -2.0014 0.9791
-1.4775 -4.6616 -2.0014 0.9791
-1.0558 -4.7749 -2.0014 0.9791
-0.6258 -4.8500 -2.0014 0.9791
-0.1907 -4.8865 -2.0014 0.9791
0.2459 -4.8840 -2.0014 0.9791
0.6806 -4.8426 -2.0014 0.9791
1.1098 -4.7626 -2.0014 0.9791
1.9384 -4.4896 -2.0014 0.9791
2.7052 -4.0738 -2.0014 0.9791
3.0578 -3.8163 -2.0014 0.9791
3.6872 -3.2122 -2.0014 0.9791
3.9591 -2.8705 -2.0014 0.9791
4.7129 -1.3048 -2.0014 0.9791
4.8698 -0.4467 -2.0014 0.9791
4.8902 -0.0105 -2.0014 0.9791
4.8716 0.4257 -2.0014 0.9791
4.7185 1.2845 -2.0014 0.9791
4.5851 1.7002 -2.0014 0.9791
4.4152 2.1024 -2.0014 0.9791
3.7010 3.1963 -2.0014 0.9791
3.4012 3.5137 -2.0014 0.9791
3.0742 3.8030 -2.0014 0.9791
1.1303 4.7578 -2.0014 0.9791
-0.6048 4.8527 -2.0014 0.9791
-2.2636 4.3348 -2.0014 0.9791
-2.6412 4.1156 -2.0014 0.9791
-3.3305 3.5808 -2.0014 0.9791
-3.6366 3.2695 -2.0014 0.9791
-4.5503 1.7913 -2.0014 0.9791
-4.6919 1.3783 -2.0014 0.9791
-1.9156 0.0341 -0.7841 0.9918
-1.9525 -0.1399 -0.8012 0.9916
-4.4475 -2.0332 -2.0014 0.9791
-4.0155 -2.7911 -2.0014 0.9791
-3.4557 -3.4601 -2.0014 0.9791
-3.1333 -3.7545 -2.0014 0.9791
-2.7859 -4.0190 -2.0014 0.9791
-1.6225 -4.6132 -2.0014 0.9791
-0.7770 -4.8281 -2.0014 0.9791
-0.3433 -4.8781 -2.0014 0.9791
0.0932 -4.8893 -2.0014 0.9791
0.5289 -4.8615 -2.0014 0.9791
0.9604 -4.7950 -2.0014 0.9791
1.3843 -4.6902 -2.0014 0.9791
2.1956 -4.3696 -2.0014 0.9791
2.9371 -3.9099 -2.0014 0.9791
3.2741 -3.6324 -2.0014 0.9791
3.5850 -3.3259 -2.0014 0.9791
3.8674 -2.9929 -2.0014 0.9791
4.3376 -2.2581 -2.0014 0.9791
4.5218 -1.8622 -2.0014 0.9791
4.6698 -1.4515 -2.0014 0.9791
4.7807 -1.0292 -2.0014 0.9791
4.8875 -0.1633 -2.0014 0.9791
4.8826 0.2733 -2.0014 0.9791
4.8387 0.7076 -2.0014 0.9791
4.6360 1.5561 -2.0014 0.9791
4.4787 1.9634 -2.0014 0.9791
4.2857 2.3551 -2.0014 0.9791
4.0586 2.7280 -2.0014 0.9791
3.5093 3.4057 -2.0014 0.9791
2.8484 3.9750 -2.0014 0.9791
0.4194 4.8722 -2.0014 0.9791
-0.0168 4.8902 -2.0014 0.9791
-0.4529 4.8692 -2.0014 0.9791
-0.8854 4.8094 -2.0014 0.9791
-2.1271 4.4034 -2.0014 0.9791
-2.5113 4.1961 -2.0014 0.9791
-2.8756 3.9554 -2.0014 0.9791
-3.8202 3.0529 -2.0014 0.9791
-4.3018 2.3256 -2.0014 0.9791
-4.7640 1.1037 -2.0014 0.9791
-1.9472 0.2711 -0.8046 0.9915
-1.9403 0.0952 -0.7951 0.9916
-1.9509 -0.2542 -0.8052 0.9915
-4.7735 -1.0620 -2.0014 0.9791
-4.6598 -1.4835 -2.0014 0.9791
-4.5089 -1.8932 -2.0014 0.9791
-4.1007 -2.6642 -2.0014 0.9791
-3.5621 -3.3504 -2.0014 0.9791
-2.1656 -4.3846 -2.0014 0.9791
-1.7658 -4.5602 -2.0014 0.9791
-0.9275 -4.8014 -2.0014 0.9791
-0.4955 -4.8650 -2.0014 0.9791
0.8102 -4.8226 -2.0014 0.9791
1.2371 -4.7311 -2.0014 0.9791
1.6541 -4.6019 -2.0014 0.9791
2.0580 -4.4361 -2.0014 0.9791
-1.5001 -0.2708 -0.6643 0.9934
-1.5985 -0.5967 -0.7436 0.9926
-4.1420 -1.9833 -2.0014 0.9802
-3.4692 -3.0091 -2.0014 0.9802
-3.1869 -3.3066 -2.0014 0.9802
-2.8793 -3.5776 -2.0014 0.9802
-2.5487 -3.8202 -2.0014 0.9802
-2.1978 -4.0323 -2.0014 0.9802
-1.8294 -4.2123 -2.0014 0.9802
0.1692 -4.5893 -2.0014 0.9802
0.5778 -4.5559 -2.0014 0.9802
1.3781 -4.3807 -2.0014 0.9802
2.4887 -3.8596 -2.0014 0.9802
3.1349 -3.3560 -2.0014 0.9802
3.4217 -3.0630 -2.0014 0.9802
3.9115 -2.4063 -2.0014 0.9802
4.2768 -1.6730 -2.0014 0.9802
4.4090 -1.2849 -2.0014 0.9802
4.5671 -0.4810 -2.0014 0.9802
4.5799 0.3381 -2.0014 0.9802
4.4470 1.1465 -2.0014 0.9802
4.3270 1.5385 -2.0014 0.9802
3.7653 2.6292 -2.0014 0.9802
3.5158 2.9546 -2.0014 0.9802
3.2382 3.2564 -2.0014 0.9802
2.2606 3.9975 -2.0014 0.9802
1.8950 4.1832 -2.0014 0.9802
1.5143 4.3355 -2.0014 0.9802
-0.0974 4.5913 -2.0014 0.9802
-0.9117 4.5010 -2.0014 0.9802
-1.6969 4.2674 -2.0014 0.9802
-2.4281 3.8980 -2.0014 0.9802
-2.7661 3.6659 -2.0014 0.9802
-3.0821 3.4045 -2.0014 0.9802
-3.3734 3.1161 -2.0014 0.9802
-3.8734 2.4671 -2.0014 0.9802
-1.5178 0.3233 -0.6763 0.9933
-1.5218 0.1844 -0.6681 0.9933
-1.5296 -0.0889 -0.6677 0.9933
-1.5135 -0.2247 -0.6668 0.9933
-1.5893 -0.5373 -0.7312 0.9927
-4.2020 -1.8529 -2.0014 0.9802
-4.0200 -2.2203 -2.0014 0.9802
-2.6669 -3.7387 -2.0014 0.9802
-1.1910 -4.4352 -2.0014 0.9802
-0.7907 -4.5238 -2.0014 0.9802
-0.3840 -4.5763 -2.0014 0.9802
0.4352 -4.5717 -2.0014 0.9802
0.8412 -4.5147 -2.0014 0.9802
2.0064 -4.1309 -2.0014 0.9802
2.7085 -3.7087 -2.0014 0.9802
3.0285 -3.4523 -2.0014 0.9802
3.3243 -3.1684 -2.0014 0.9802
3.5937 -2.8593 -2.0014 0.9802
3.8344 -2.5273 -2.0014 0.9802
4.4761 -1.0269 -2.0014 0.9802
4.5499 -0.6235 -2.0014 0.9802
4.5873 -0.2152 -2.0014 0.9802
4.5526 0.6033 -2.0014 0.9802
4.4806 1.0070 -2.0014 0.9802
4.2304 1.7870 -2.0014 0.9802
4.0542 2.1572 -2.0014 0.9802
3.3384 3.1536 -2.0014 0.9802
3.0438 3.4388 -2.0014 0.9802
2.7249 3.6966 -2.0014 0.9802
1.2602 4.4161 -2.0014 0.9802
0.4555 4.5697 -2.0014 0.9802
-0.3637 4.5780 -2.0014 0.9802
-0.7706 4.5273 -2.0014 0.9802
-1.5627 4.3183 -2.0014 0.9802
-1.9416 4.1617 -2.0014 0.9802
-2.3051 3.9720 -2.0014 0.9802
-2.9742 3.4992 -2.0014 0.9802
-3.2744 3.2200 -2.0014 0.9802
-3.5486 2.9151 -2.0014 0.9802
-3.7944 2.5869 -2.0014 0.9802
-4.0100 2.2382 -2.0014 0.9802
-1.5118 0.2313 -0.6665 0.9933
-1.5296 0.0957 -0.6679 0.9933
-1.5273 -0.0410 -0.6659 0.9934
-1.5229 -0.1776 -0.6682 0.9933
-1.5140 -0.3155 -0.6740 0.9933
-1.5755 -0.4783 -0.7176 0.9928
-4.2578 -1.7207 -2.0014 0.9802
-4.0874 -2.0936 -2.0014 0.9802
-3.8844 -2.4499 -2.0014 0.9802
-3.6504 -2.7866 -2.0014 0.9802
-2.4454 -3.8871 -2.0014 0.9802
-1.3290 -4.3959 -2.0014 0.9802
-0.5268 -4.5621 -2.0014 0.9802
1.1018 -4.4582 -2.0014 0.9802
1.4950 -4.3422 -2.0014 0.9802
2.2428 -4.0075 -2.0014 0.9802
2.5913 -3.7915 -2.0014 0.9802
2.9191 -3.5452 -2.0014 0.9802
3.7535 -2.6459 -2.0014 0.9802
4.3201 -1.5578 -2.0014 0.9802
4.4418 -1.1662 -2.0014 0.9802
4.5282 -0.7654 -2.0014 0.9802
4.5921 0.0514 -2.0014 0.9802
4.5692 0.4607 -2.0014 0.9802
4.5099 0.8664 -2.0014 0.9802
3.6935 2.7292 -2.0014 0.9802
3.1498 3.3420 -2.0014 0.9802
2.8391 3.6096 -2.0014 0.9802
1.7822 4.2325 -2.0014 0.9802
1.3976 4.3746 -2.0014 0.9802
0.1896 4.5885 -2.0014 0.9802
-1.0320 4.4749 -2.0014 0.9802
-1.4270 4.3650 -2.0014 0.9802
-1.8107 4.2204 -2.0014 0.9802
-2.5317 3.8315 -2.0014 0.9802
-3.1722 3.3207 -2.0014 0.9802
-3.4557 3.0245 -2.0014 0.9802
-3.7117 2.7042 -2.0014 0.9802
-3.9382 2.3624 -2.0014 0.9802
-4.1332 2.0017 -2.0014 0.9802
-4.2952 1.6251 -2.0014 0.9802
-1.5630 0.4366 -0.7073 0.9929
-1.4979 0.2773 -0.6639 0.9934
-1.5272 0.1436 -0.6685 0.9933
-1.5232 0.0068 -0.6638 0.9934
-1.5283 -0.1300 -0.6685 0.9933
-1.5022 -0.2643 -0.6648 0.9934
-1.5975 -0.5882 -0.7419 0.9926
-3.4825 -2.9937 -2.0014 0.9802
-3.2016 -3.2924 -2.0014 0.9802
-2.5657 -3.8088 -2.0014 0.9802
-1.4658 -4.3522 -2.0014 0.9802
-1.0717 -4.4656 -2.0014 0.9802
-0.6691 -4.5434 -2.0014 0.9802
-0.2612 -4.5849 -2.0014 0.9802
0.1488 -4.5900 -2.0014 0.9802
2.4715 -3.8706 -2.0014 0.9802
2.8069 -3.6347 -2.0014 0.9802
3.4081 -3.0782 -2.0014 0.9802
4.4032 -1.3045 -2.0014 0.9802
4.5649 -0.5013 -2.0014 0.9802
4.5915 -0.0922 -2.0014 0.9802
4.5814 0.3177 -2.0014 0.9802
4.5348 0.7251 -2.0014 0.9802
4.3338 1.5193 -2.0014 0.9802
4.1810 1.8998 -2.0014 0.9802
3.9949 2.2651 -2.0014 0.9802
3.7769 2.6124 -2.0014 0.9802
3.2527 3.2419 -2.0014 0.9802
1.5336 4.3288 -2.0014 0.9802
1.1414 4.4483 -2.0014 0.9802
0.7401 4.5324 -2.0014 0.9802
0.3329 4.5803 -2.0014 0.9802
-0.0770 4.5917 -2.0014 0.9802
-0.4863 4.5666 -2.0014 0.9802
-0.8916 4.5050 -2.0014 0.9802
-2.0525 4.1082 -2.0014 0.9802
-2.4107 3.9087 -2.0014 0.9802
-2.7498 3.6781 -2.0014 0.9802
-3.6254 2.8189 -2.0014 0.9802
-3.8624 2.4843 -2.0014 0.9802
-4.0686 2.1299 -2.0014 0.9802
-1.5215 0.3312 -0.6786 0.9932
-1.5206 0.1911 -0.6679 0.9933
-1.5284 0.0546 -0.6665 0.9933
-1.5295 -0.0821 -0.6676 0.9933
-1.5151 -0.2180 -0.6671 0.9933
-1.5876 -0.5289 -0.7293 0.9927
-4.2102 -1.8342 -2.0014 0.9802
-3.3029 -3.1907 -2.0014 0.9802
-3.0052 -3.4726 -2.0014 0.9802
-2.6834 -3.7268 -2.0014 0.9802
-1.9786 -4.1443 -2.0014 0.9802
-1.6010 -4.3043 -2.0014 0.9802
-1.2107 -4.4299 -2.0014 0.9802
-0.8108 -4.5202 -2.0014 0.9802
-0.4044 -4.5745 -2.0014 0.9802
0.4149 -4.5736 -2.0014 0.9802
0.8211 -4.5184 -2.0014 0.9802
2.6920 -3.7207 -2.0014 0.9802
3.3102 -3.1831 -2.0014 0.9802
3.5809 -2.8752 -2.0014 0.9802
3.8231 -2.5443 -2.0014 0.9802
4.2144 -1.8246 -2.0014 0.9802
4.3603 -1.4414 -2.0014 0.9802
4.5470 -0.6438 -2.0014 0.9802
4.5863 -0.2356 -2.0014 0.9802
4.5891 0.1744 -2.0014 0.9802
4.5552 0.5830 -2.0014 0.9802
4.4851 0.9870 -2.0014 0.9802
4.2383 1.7682 -2.0014 0.9802
3.6190 2.8272 -2.0014 0.9802
3.3524 3.1387 -2.0014 0.9802
3.0591 3.4252 -2.0014 0.9802
2.7414 3.6844 -2.0014 0.9802
2.4018 3.9142 -2.0014 0.9802
0.4758 4.5677 -2.0014 0.9802
-0.7504 4.5307 -2.0014 0.9802
-1.5435 4.3252 -2.0014 0.9802
-1.9231 4.1703 -2.0014 0.9802
-2.2874 3.9822 -2.0014 0.9802
-2.6335 3.7623 -2.0014 0.9802
-3.2601 3.2345 -2.0014 0.9802
-3.5356 2.9308 -2.0014 0.9802
-4.0001 2.2560 -2.0014 0.9802
-1.5295 0.1026 -0.6681 0.9933
-1.5267 -0.0341 -0.6655 0.9934
-1.5239 -0.1709 -0.6683 0.9933
-1.5102 -0.3077 -0.6717 0.9933
-1.5732 -0.4700 -0.7156 0.9929
-4.2654 -1.7018 -2.0014 0.9802
-3.4010 -3.0859 -2.0014 0.9802
-3.1122 -3.3770 -2.0014 0.9802
-2.4627 -3.8762 -2.0014 0.9802
-2.1071 -4.0804 -2.0014 0.9802
-1.7348 -4.2521 -2.0014 0.9802
-1.3486 -4.3899 -2.0014 0.9802
-0.9516 -4.4927 -2.0014 0.9802
-0.5471 -4.5597 -2.0014 0.9802
0.6796 -4.5418 -2.0014 0.9802
1.0819 -4.4631 -2.0014 0.9802
1.8577 -4.1999 -2.0014 0.9802
2.2249 -4.0174 -2.0014 0.9802
2.5744 -3.8030 -2.0014 0.9802
2.9033 -3.5582 -2.0014 0.9802
3.2091 -3.2850 -2.0014 0.9802
3.4893 -2.9857 -2.0014 0.9802
4.1553 -1.9554 -2.0014 0.9802
4.3131 -1.5770 -2.0014 0.9802
4.4366 -1.1860 -2.0014 0.9802
4.4202 1.2456 -2.0014 0.9802
3.9327 2.3714 -2.0014 0.9802
3.7055 2.7127 -2.0014 0.9802
3.4488 3.0324 -2.0014 0.9802
3.1646 3.3280 -2.0014 0.9802
2.8551 3.5970 -2.0014 0.9802
2.1706 4.0470 -2.0014 0.9802
1.0217 4.4773 -2.0014 0.9802
-0.2001 4.5880 -2.0014 0.9802
-0.6085 4.5519 -2.0014 0.9802
-1.0121 4.4795 -2.0014 0.9802
-1.4076 4.3713 -2.0014 0.9802
-2.1619 4.0517 -2.0014 0.9802
-3.1574 3.3348 -2.0014 0.9802
-3.4423 3.0399 -2.0014 0.9802
-3.6997 2.7207 -2.0014 0.9802
-1.5657 0.4449 -0.7094 0.9929
-1.4981 0.2843 -0.6646 0.9934
-1.5265 0.1504 -0.6685 0.9933
-1.5043 -0.2578 -0.6652 0.9934
-1.5546 -0.4120 -0.7009 0.9930
-3.9693 -2.3097 -2.0014 0.9802
-3.4958 -2.9782 -2.0014 0.9802
-2.2336 -4.0126 -2.0014 0.9802
-1.4851 -4.3456 -2.0014 0.9802
-1.0916 -4.4608 -2.0014 0.9802
-0.2816 -4.5837 -2.0014 0.9802
0.1284 -4.5906 -2.0014 0.9802
0.5373 -4.5608 -2.0014 0.9802
0.9420 -4.4947 -2.0014 0.9802
1.7256 -4.2559 -2.0014 0.9802
2.0983 -4.0850 -2.0014 0.9802
2.7907 -3.6472 -2.0014 0.9802
3.3943 -3.0933 -2.0014 0.9802
4.2618 -1.7109 -2.0014 0.9802
4.4979 -0.9265 -2.0014 0.9802
4.5910 -0.1126 -2.0014 0.9802
4.5827 0.2973 -2.0014 0.9802
4.5380 0.7049 -2.0014 0.9802
4.1894 1.8812 -2.0014 0.9802
4.0049 2.2474 -2.0014 0.9802
3.5419 2.9232 -2.0014 0.9802
3.2670 3.2275 -2.0014 0.9802
2.9661 3.5060 -2.0014 0.9802
1.9321 4.1662 -2.0014 0.9802
0.7602 4.5290 -2.0014 0.9802
0.3532 4.5788 -2.0014 0.9802
-0.4660 4.5687 -2.0014 0.9802
-0.8716 4.5089 -2.0014 0.9802
-1.2703 4.4132 -2.0014 0.9802
-1.6589 4.2823 -2.0014 0.9802
-2.0342 4.1173 -2.0014 0.9802
-2.7334 3.6903 -2.0014 0.9802
-4.2345 1.7774 -2.0014 0.9802
-1.5194 0.1978 -0.6678 0.9933
-1.5288 0.0614 -0.6668 0.9933
-1.5166 -0.2114 -0.6673 0.9933
-1.5858 -0.5204 -0.7274 0.9927
-4.2183 -1.8155 -2.0014 0.9802
-3.8286 -2.5361 -2.0014 0.9802
-3.5871 -2.8675 -2.0014 0.9802
-2.7000 -3.7148 -2.0014 0.9802
-1.9970 -4.1354 -2.0014 0.9802
-0.8309 -4.5166 -2.0014 0.9802
1.2012 -4.4325 -2.0014 0.9802
1.9696 -4.1486 -2.0014 0.9802
2.3318 -3.9563 -2.0014 0.9802
2.9977 -3.4791 -2.0014 0.9802
3.2960 -3.1978 -2.0014 0.9802
3.5681 -2.8911 -2.0014 0.9802
4.2062 -1.8433 -2.0014 0.9802
4.4668 -1.0666 -2.0014 0.9802
4.5441 -0.6640 -2.0014 0.9802
4.5852 -0.2560 -2.0014 0.9802
4.5578 0.5628 -2.0014 0.9802
4.3853 1.3636 -2.0014 0.9802
4.0732 2.1211 -2.0014 0.9802
3.8678 2.4760 -2.0014 0.9802
3.6315 2.8111 -2.0014 0.9802
2.7577 3.6722 -2.0014 0.9802
2.4192 3.9035 -2.0014 0.9802
1.2994 4.4047 -2.0014 0.9802
0.0869 4.5916 -2.0014 0.9802
-0.3230 4.5810 -2.0014 0.9802
-0.7303 4.5339 -2.0014 0.9802
-1.1318 4.4507 -2.0014 0.9802
-1.5242 4.3321 -2.0014 0.9802
-1.9046 4.1788 -2.0014 0.9802
-2.2697 3.9923 -2.0014 0.9802
-2.6168 3.7739 -2.0014 0.9802
-3.2457 3.2489 -2.0014 0.9802
-3.5225 2.9465 -2.0014 0.9802
-3.7713 2.6206 -2.0014 0.9802
-1.5938 0.5626 -0.7366 0.9927
-1.5083 0.2445 -0.6659 0.9934
-1.5259 -0.0273 -0.6651 0.9934
-1.5708 -0.4617 -0.7135 0.9929
-4.2730 -1.6828 -2.0014 0.9802
-3.9060 -2.4152 -2.0014 0.9802
-3.6750 -2.7540 -2.0014 0.9802
-3.4147 -3.0708 -2.0014 0.9802
