ply
format ascii 1.0
element vertex 1595
property float32 x
property float32 y
property float32 z
property float32 I
end_header
-4.3902 2.8141 -1.9984 0.9779
-4.6231 2.4110 -1.9981 0.9779
-4.8192 1.9888 -1.9979 0.9779
-4.9769 1.5509 -1.9977 0.9779
-5.1573 -0.7504 -1.9972 0.9779
-4.9420 -1.6548 -1.9972 0.9779
-4.5698 -2.5068 -1.9974 0.9779
-4.0523 -3.2794 -1.9977 0.9779
-3.4059 -3.9481 -1.9982 0.9779
-2.6510 -4.4917 -1.9987 0.9779
-1.8113 -4.8929 -1.9994 0.9779
-1.3679 -5.0358 -1.9997 0.9779
-0.9134 -5.1387 -2.0001 0.9779
1.8406 -4.8906 -2.0025 0.9779
3.4372 -3.9411 -2.0040 0.9778
4.3600 -2.8918 -2.0049 0.9778
4.6012 -2.4918 -2.0052 0.9778
4.8056 -2.0717 -2.0054 0.9778
4.9718 -1.6349 -2.0057 0.9778
5.0982 -1.1851 -2.0058 0.9778
5.2283 -0.2604 -2.0061 0.9778
5.2309 0.2070 -2.0062 0.9778
5.1110 1.1331 -2.0062 0.9778
4.8281 2.0231 -2.0061 0.9778
4.6282 2.4456 -2.0060 0.9778
4.1194 3.2285 -2.0057 0.9778
3.8146 3.5827 -2.0055 0.9778
3.4794 3.9082 -2.0052 0.9778
2.7289 4.4630 -2.0047 0.9778
1.8919 4.8753 -2.0040 0.9778
1.4493 5.0237 -2.0037 0.9779
0.9952 5.1320 -2.0033 0.9779
0.5334 5.1993 -2.0029 0.9779
-0.3987 5.2093 -2.0021 0.9779
-0.8616 5.1519 -2.0017 0.9779
-1.3174 5.0535 -2.0013 0.9779
-1.7626 4.9149 -2.0009 0.9779
-2.6068 4.5218 -2.0002 0.9779
-2.9992 4.2704 -1.9998 0.9779
-3.3675 3.9852 -1.9994 0.9779
-4.7549 2.1385 -1.9980 0.9779
-4.9262 1.7057 -1.9978 0.9779
-5.0582 1.2594 -1.9976 0.9779
-5.1500 0.8031 -1.9974 0.9779
-5.1051 -1.0484 -1.9972 0.9779
-4.8378 -1.9389 -1.9973 0.9779
-4.6458 -2.3628 -1.9974 0.9779
-4.4168 -2.7679 -1.9975 0.9779
-3.8554 -3.5093 -1.9979 0.9779
-3.1713 -4.1395 -1.9984 0.9779
-2.3861 -4.6385 -1.9989 0.9779
-1.5245 -4.9903 -1.9996 0.9779
-0.6138 -5.1837 -2.0004 0.9779
-0.1490 -5.2188 -2.0008 0.9779
0.3172 -5.2123 -2.0011 0.9779
0.7810 -5.1643 -2.0016 0.9779
2.1216 -4.7761 -2.0027 0.9779
2.5396 -4.5687 -2.0031 0.9779
2.9375 -4.3248 -2.0035 0.9779
3.3122 -4.0463 -2.0039 0.9778
3.6605 -3.7354 -2.0042 0.9778
4.2673 -3.0265 -2.0048 0.9778
4.5209 -2.6342 -2.0051 0.9778
4.7384 -2.2207 -2.0054 0.9778
5.0586 -1.3437 -2.0058 0.9778
5.1587 -0.8873 -2.0059 0.9778
5.2348 0.0434 -2.0061 0.9778
5.2102 0.5102 -2.0062 0.9778
5.1439 0.9729 -2.0062 0.9778
5.0366 1.4278 -2.0062 0.9778
4.7024 2.2998 -2.0060 0.9778
3.9248 3.4619 -2.0055 0.9778
3.6000 3.7977 -2.0053 0.9778
2.8672 4.3758 -2.0048 0.9778
2.4651 4.6134 -2.0045 0.9778
2.0434 4.8141 -2.0042 0.9778
1.6056 4.9763 -2.0038 0.9779
1.1551 5.0987 -2.0034 0.9779
0.6956 5.1805 -2.0031 0.9779
-1.6083 4.9679 -2.0011 0.9779
-2.0446 4.8037 -2.0007 0.9779
-3.2416 4.0887 -1.9996 0.9779
-3.5927 3.7826 -1.9992 0.9779
-3.9151 3.4466 -1.9989 0.9779
-4.2063 3.0832 -1.9986 0.9779
-4.8706 1.8588 -1.9978 0.9779
-5.1877 0.5029 -1.9974 0.9779
-5.2117 0.0382 -1.9973 0.9779
-5.1353 -0.8884 -1.9972 0.9779
-5.0357 -1.3429 -1.9972 0.9779
-4.8959 -1.7868 -1.9972 0.9779
-4.7173 -2.2164 -1.9973 0.9779
-4.2490 -3.0197 -1.9976 0.9779
-3.9631 -3.3870 -1.9978 0.9779
-2.9260 -4.3169 -1.9985 0.9779
-2.5297 -4.5614 -1.9988 0.9779
-1.6796 -4.9399 -1.9995 0.9779
-1.2324 -5.0710 -1.9999 0.9779
-0.3120 -5.2112 -2.0006 0.9779
0.1541 -5.2193 -2.0010 0.9779
0.6192 -5.1858 -2.0014 0.9779
1.9712 -4.8398 -2.0026 0.9779
2.3955 -4.6455 -2.0030 0.9779
2.8008 -4.4142 -2.0034 0.9779
3.1839 -4.1475 -2.0037 0.9779
3.8715 -3.5171 -2.0044 0.9778
4.4361 -2.7740 -2.0050 0.9778
5.0140 -1.5011 -2.0057 0.9778
5.1283 -1.0480 -2.0059 0.9778
5.2017 -0.5864 -2.0060 0.9778
5.2335 -0.1201 -2.0061 0.9778
5.0788 1.2698 -2.0062 0.9778
4.7721 2.1518 -2.0061 0.9778
4.3132 2.9651 -2.0058 0.9778
3.7170 3.6836 -2.0054 0.9778
3.3733 3.9999 -2.0052 0.9778
2.1930 4.7481 -2.0043 0.9778
1.3140 5.0605 -2.0036 0.9779
0.8572 5.1565 -2.0032 0.9779
-0.5382 5.1964 -2.0020 0.9779
-0.9994 5.1267 -2.0016 0.9779
-1.8936 4.8656 -2.0008 0.9779
-2.7269 4.4500 -2.0000 0.9779
-3.1124 4.1883 -1.9997 0.9779
-3.8058 3.5674 -1.9990 0.9779
-4.1082 3.2132 -1.9987 0.9779
-4.3777 2.8336 -1.9984 0.9779
-4.6124 2.4315 -1.9981 0.9779
-4.8104 2.0102 -1.9979 0.9779
-5.2080 0.2010 -1.9973 0.9779
-5.1606 -0.7275 -1.9972 0.9779
-5.0751 -1.1849 -1.9972 0.9779
-4.9493 -1.6329 -1.9972 0.9779
-4.5808 -2.4865 -1.9974 0.9779
-4.0668 -3.2614 -1.9977 0.9779
-3.4234 -3.9330 -1.9982 0.9779
-3.0593 -4.2232 -1.9984 0.9779
-2.2610 -4.7010 -1.9990 0.9779
-1.3902 -5.0296 -1.9997 0.9779
-0.4746 -5.1986 -2.0005 0.9779
0.4568 -5.2023 -2.0013 0.9779
1.3744 -5.0403 -2.0021 0.9779
2.2490 -4.7178 -2.0029 0.9779
2.6614 -4.4993 -2.0032 0.9779
3.0526 -4.2447 -2.0036 0.9779
3.4197 -3.9563 -2.0040 0.9778
3.7596 -3.6361 -2.0043 0.9778
4.7964 -2.0930 -2.0054 0.9778
4.9645 -1.6570 -2.0056 0.9778
5.0929 -1.2077 -2.0058 0.9778
5.1807 -0.7487 -2.0060 0.9778
5.2271 -0.2836 -2.0061 0.9778
5.2318 0.1838 -2.0062 0.9778
5.1160 1.1105 -2.0062 0.9778
4.8370 2.0017 -2.0061 0.9778
4.4039 2.8289 -2.0059 0.9778
4.1337 3.2102 -2.0057 0.9778
3.8305 3.5657 -2.0055 0.9778
3.1352 4.1886 -2.0050 0.9778
1.9135 4.8669 -2.0041 0.9778
1.0180 5.1276 -2.0033 0.9779
0.5565 5.1970 -2.0029 0.9779
-1.2950 5.0594 -2.0014 0.9779
-1.7408 4.9227 -2.0010 0.9779
-2.1725 4.7469 -2.0006 0.9779
-2.5868 4.5333 -2.0002 0.9779
-2.9802 4.2837 -1.9998 0.9779
-3.3498 4.0001 -1.9994 0.9779
-3.6927 3.6848 -1.9991 0.9779
-4.5344 2.5746 -1.9982 0.9779
-4.7454 2.1596 -1.9980 0.9779
-5.1993 0.3636 -1.9973 0.9779
-5.2108 -0.1016 -1.9972 0.9779
-5.1808 -0.5659 -1.9972 0.9779
-4.9979 -1.4775 -1.9972 0.9779
-4.8463 -1.9174 -1.9973 0.9779
-4.6562 -2.3421 -1.9974 0.9779
-4.1666 -3.1326 -1.9977 0.9779
-1.0961 -5.1025 -2.0000 0.9779
-0.1721 -5.2180 -2.0007 0.9779
0.2940 -5.2136 -2.0011 0.9779
0.7580 -5.1677 -2.0015 0.9779
1.2162 -5.0805 -2.0019 0.9779
2.5193 -4.5799 -2.0031 0.9779
2.9183 -4.3378 -2.0035 0.9779
3.9646 -3.4121 -2.0045 0.9778
4.5091 -2.6542 -2.0051 0.9778
4.9101 -1.8112 -2.0056 0.9778
5.0526 -1.3662 -2.0058 0.9778
5.1547 -0.9101 -2.0059 0.9778
5.2156 -0.4467 -2.0060 0.9778
5.2349 0.0202 -2.0061 0.9778
5.1482 0.9501 -2.0062 0.9778
5.0429 1.4055 -2.0062 0.9778
4.7126 2.2789 -2.0060 0.9778
4.4902 2.6900 -2.0059 0.9778
3.6168 3.7817 -2.0053 0.9778
3.2647 4.0887 -2.0051 0.9778
2.4855 4.6024 -2.0045 0.9778
2.0648 4.8050 -2.0042 0.9778
1.6277 4.9691 -2.0038 0.9779
1.1778 5.0936 -2.0035 0.9779
0.7186 5.1774 -2.0031 0.9779
-0.2127 5.2206 -2.0023 0.9779
-1.1364 5.0977 -2.0015 0.9779
-1.5862 4.9750 -2.0011 0.9779
-2.8451 4.3750 -1.9999 0.9779
-3.2234 4.1031 -1.9996 0.9779
-4.1926 3.1018 -1.9986 0.9779
-5.1855 0.5259 -1.9974 0.9779
-5.1392 -0.8656 -1.9972 0.9779
-5.0416 -1.3206 -1.9972 0.9779
-4.9038 -1.7650 -1.9972 0.9779
-4.7270 -2.1955 -1.9973 0.9779
-4.5126 -2.6085 -1.9974 0.9779
-4.2623 -3.0008 -1.9976 0.9779
-3.9780 -3.3694 -1.9978 0.9779
-3.6620 -3.7112 -1.9980 0.9779
-3.3168 -4.0235 -1.9982 0.9779
-2.9451 -4.3039 -1.9985 0.9779
-1.7014 -4.9324 -1.9995 0.9779
-1.2549 -5.0654 -1.9998 0.9779
-0.3351 -5.2097 -2.0006 0.9779
0.1310 -5.2199 -2.0010 0.9779
1.0568 -5.1156 -2.0018 0.9779
1.5092 -5.0020 -2.0022 0.9779
1.9497 -4.8484 -2.0026 0.9779
2.7812 -4.4265 -2.0034 0.9779
3.8559 -3.5341 -2.0044 0.9778
4.1564 -3.1766 -2.0047 0.9778
4.4238 -2.7936 -2.0050 0.9778
4.8509 -1.9637 -2.0055 0.9778
5.1236 -1.0707 -2.0059 0.9778
5.1990 -0.6095 -2.0060 0.9778
5.2250 0.3240 -2.0062 0.9778
5.0844 1.2472 -2.0062 0.9778
4.7816 2.1306 -2.0061 0.9778
4.5722 2.5485 -2.0060 0.9778
4.0460 3.3198 -2.0056 0.9778
3.0216 4.2709 -2.0049 0.9778
2.2140 4.7384 -2.0043 0.9778
0.4169 5.2097 -2.0028 0.9779
-0.5152 5.1988 -2.0020 0.9779
-3.0938 4.2021 -1.9997 0.9779
-3.4557 3.9087 -1.9993 0.9779
-3.7899 3.5843 -1.9990 0.9779
-4.0939 3.2314 -1.9987 0.9779
-4.3652 2.8530 -1.9984 0.9779
-4.6016 2.4520 -1.9981 0.9779
-4.8014 2.0315 -1.9979 0.9779
-5.2061 -0.2412 -1.9972 0.9779
-5.1638 -0.7046 -1.9972 0.9779
-5.0803 -1.1624 -1.9972 0.9779
-4.9565 -1.6109 -1.9972 0.9779
-4.5918 -2.4662 -1.9974 0.9779
-4.0812 -3.2433 -1.9977 0.9779
-3.0780 -4.2096 -1.9984 0.9779
-2.2818 -4.6909 -1.9990 0.9779
-1.8546 -4.8765 -1.9994 0.9779
-1.4125 -5.0234 -1.9997 0.9779
-0.9590 -5.1303 -2.0001 0.9779
-0.0322 -5.2211 -2.0009 0.9779
1.3521 -5.0463 -2.0021 0.9779
1.7971 -4.9066 -2.0025 0.9779
2.2281 -4.7277 -2.0028 0.9779
2.6414 -4.5110 -2.0032 0.9779
3.0337 -4.2582 -2.0036 0.9779
3.4021 -3.9713 -2.0040 0.9778
3.7434 -3.6527 -2.0043 0.9778
4.0549 -3.3047 -2.0046 0.9778
4.9570 -1.6789 -2.0056 0.9778
5.2258 -0.3068 -2.0061 0.9778
5.0034 1.5402 -2.0062 0.9778
4.1479 3.1919 -2.0057 0.9778
3.5140 3.8772 -2.0053 0.9778
2.7684 4.4387 -2.0047 0.9778
1.9351 4.8584 -2.0041 0.9778
1.4938 5.0107 -2.0037 0.9779
1.0407 5.1231 -2.0033 0.9779
0.1139 5.2244 -2.0026 0.9779
-1.7190 4.9304 -2.0010 0.9779
-2.1515 4.7565 -2.0006 0.9779
-2.9612 4.2969 -1.9998 0.9779
-3.9912 3.3579 -1.9988 0.9779
-4.9109 1.7493 -1.9978 0.9779
-5.0469 1.3042 -1.9976 0.9779
-5.2112 -0.0785 -1.9972 0.9779
-5.1833 -0.5429 -1.9972 0.9779
-5.1142 -1.0031 -1.9972 0.9779
-5.0044 -1.4553 -1.9972 0.9779
-4.6665 -2.3215 -1.9974 0.9779
-4.4412 -2.7286 -1.9975 0.9779
-4.1804 -3.1141 -1.9977 0.9779
-3.2079 -4.1112 -1.9983 0.9779
-2.4271 -4.6171 -1.9989 0.9779
-2.0059 -4.8159 -1.9992 0.9779
-1.5686 -4.9765 -1.9996 0.9779
-1.1187 -5.0975 -1.9999 0.9779
-0.6597 -5.1779 -2.0003 0.9779
-0.1953 -5.2172 -2.0007 0.9779
1.6428 -4.9600 -2.0023 0.9779
2.0791 -4.7947 -2.0027 0.9779
3.2761 -4.0755 -2.0038 0.9778
4.4973 -2.6742 -2.0051 0.9778
4.7185 -2.2626 -2.0053 0.9778
4.9020 -1.8329 -2.0056 0.9778
5.0464 -1.3885 -2.0058 0.9778
5.1506 -0.9330 -2.0059 0.9778
5.2136 -0.4699 -2.0060 0.9778
5.2349 -0.0030 -2.0061 0.9778
5.2145 0.4640 -2.0062 0.9778
5.1524 0.9273 -2.0062 0.9778
4.9055 1.8279 -2.0061 0.9778
4.7227 2.2580 -2.0060 0.9778
3.9554 3.4270 -2.0056 0.9778
3.6336 3.7657 -2.0053 0.9778
2.5059 4.5914 -2.0045 0.9778
2.0861 4.7958 -2.0042 0.9778
1.2004 5.0884 -2.0035 0.9779
-0.1895 5.2216 -2.0023 0.9779
-1.1138 5.1028 -2.0015 0.9779
-1.5642 4.9821 -2.0011 0.9779
-2.0020 4.8218 -2.0007 0.9779
-2.4236 4.6231 -2.0003 0.9779
-4.6656 2.3276 -1.9981 0.9779
-5.0038 1.4613 -1.9977 0.9779
-5.2111 0.0844 -1.9973 0.9779
-5.1430 -0.8428 -1.9972 0.9779
-5.0474 -1.2982 -1.9972 0.9779
-4.9116 -1.7433 -1.9972 0.9779
-4.7367 -2.1745 -1.9973 0.9779
-4.2755 -2.9819 -1.9976 0.9779
-3.9929 -3.3517 -1.9978 0.9779
-3.6784 -3.6949 -1.9980 0.9779
-3.3346 -4.0087 -1.9982 0.9779
-2.5700 -4.5387 -1.9988 0.9779
-1.7232 -4.9248 -1.9995 0.9779
-0.8211 -5.1545 -2.0002 0.9779
0.1078 -5.2204 -2.0010 0.9779
1.0341 -5.1202 -2.0018 0.9779
1.9281 -4.8569 -2.0026 0.9779
2.7615 -4.4388 -2.0033 0.9779
3.1470 -4.1755 -2.0037 0.9779
3.5075 -3.8789 -2.0041 0.9778
3.8401 -3.5512 -2.0044 0.9778
4.1422 -3.1950 -2.0047 0.9778
4.6453 -2.4088 -2.0053 0.9778
5.0004 -1.5455 -2.0057 0.9778
5.1188 -1.0934 -2.0059 0.9778
5.1962 -0.6325 -2.0060 0.9778
5.2322 -0.1665 -2.0061 0.9778
5.2264 0.3008 -2.0062 0.9778
5.1788 0.7658 -2.0062 0.9778
4.7910 2.1094 -2.0061 0.9778
4.3394 2.9267 -2.0058 0.9778
4.0607 3.3018 -2.0056 0.9778
3.7496 3.6505 -2.0054 0.9778
3.4086 3.9699 -2.0052 0.9778
3.0405 4.2575 -2.0049 0.9778
2.2350 4.7286 -2.0043 0.9778
-0.4921 5.2011 -2.0021 0.9779
-1.4079 5.0289 -2.0013 0.9779
-3.4384 3.9240 -1.9994 0.9779
-3.7741 3.6010 -1.9990 0.9779
-4.5908 2.4724 -1.9982 0.9779
-5.0799 1.1684 -1.9975 0.9779
-4.9636 -1.5889 -1.9972 0.9779
-4.3665 -2.8468 -1.9975 0.9779
-3.7919 -3.5780 -1.9979 0.9779
-3.0966 -4.1958 -1.9984 0.9779
-2.7104 -4.4560 -1.9987 0.9779
-1.4347 -5.0170 -1.9997 0.9779
-0.5207 -5.1941 -2.0004 0.9779
0.8735 -5.1497 -2.0016 0.9779
1.7753 -4.9145 -2.0024 0.9779
2.2071 -4.7375 -2.0028 0.9779
-1.8994 -0.0029 -0.7774 0.9918
-1.9579 -0.1784 -0.8046 0.9915
-4.5699 -1.7138 -1.9975 0.9791
-4.1931 -2.4988 -1.9977 0.9791
-3.6830 -3.2046 -1.9981 0.9791
-3.3828 -3.5207 -1.9983 0.9791
-1.9391 -4.4838 -1.9993 0.9791
-1.1119 -4.7585 -2.0000 0.9791
-0.6832 -4.8396 -2.0004 0.9791
1.0532 -4.7765 -2.0018 0.9791
3.0154 -3.8567 -2.0036 0.9791
3.3479 -3.5730 -2.0040 0.9791
3.9307 -2.9221 -2.0046 0.9791
4.1762 -2.5602 -2.0048 0.9791
4.8097 -0.9385 -2.0056 0.9790
4.8746 -0.5058 -2.0057 0.9790
4.9004 -0.0690 -2.0058 0.9790
4.8872 0.3684 -2.0059 0.9790
4.8349 0.8028 -2.0059 0.9790
4.7440 1.2308 -2.0059 0.9790
4.4496 2.0541 -2.0058 0.9790
4.2484 2.4426 -2.0057 0.9790
4.0133 2.8116 -2.0055 0.9790
3.4492 3.4793 -2.0051 0.9790
2.0137 4.4634 -2.0041 0.9791
1.6073 4.6245 -2.0038 0.9791
1.1882 4.7486 -2.0034 0.9791
0.7597 4.8349 -2.0031 0.9791
0.3254 4.8825 -2.0027 0.9791
-0.5471 4.8608 -2.0020 0.9791
-0.9783 4.7917 -2.0016 0.9791
-1.4015 4.6845 -2.0012 0.9791
-2.2107 4.3593 -2.0005 0.9791
-3.5932 3.3088 -1.9991 0.9791
-3.8734 2.9747 -1.9988 0.9791
-4.1228 2.6170 -1.9986 0.9791
-4.3392 2.2385 -1.9983 0.9791
-4.5211 1.8424 -1.9981 0.9791
-1.9544 0.2337 -0.8056 0.9915
-1.9261 0.0572 -0.7886 0.9917
-1.9466 -0.1162 -0.7981 0.9916
-1.9592 -0.2939 -0.8108 0.9915
-4.6211 -1.5702 -1.9975 0.9791
-4.0412 -2.7380 -1.9978 0.9791
-1.6758 -4.5892 -1.9996 0.9791
-1.2600 -4.7212 -1.9999 0.9791
-0.8340 -4.8156 -2.0002 0.9791
0.0349 -4.8889 -2.0010 0.9791
0.4709 -4.8672 -2.0013 0.9791
1.7437 -4.5714 -2.0025 0.9791
2.5291 -4.1904 -2.0032 0.9791
2.8933 -3.9488 -2.0035 0.9791
3.2345 -3.6756 -2.0039 0.9791
4.5077 -1.9196 -2.0052 0.9790
4.6614 -1.5100 -2.0054 0.9790
4.7779 -1.0883 -2.0056 0.9790
4.8563 -0.6579 -2.0057 0.9790
4.8958 -0.2221 -2.0058 0.9790
4.6645 1.5041 -2.0059 0.9790
3.2413 3.6733 -2.0050 0.9790
2.9004 3.9473 -2.0047 0.9791
2.5364 4.1897 -2.0045 0.9791
1.7511 4.5723 -2.0039 0.9791
-0.3950 4.8758 -2.0021 0.9791
-1.6708 4.5947 -2.0010 0.9791
-2.4597 4.2232 -2.0002 0.9791
-3.4882 3.4196 -1.9992 0.9791
-4.0392 2.7446 -1.9987 0.9791
-4.2674 2.3731 -1.9984 0.9791
-4.4615 1.9828 -1.9982 0.9791
-4.6201 1.5768 -1.9980 0.9791
-1.9698 0.2982 -0.8154 0.9914
-1.9249 -0.0546 -0.7881 0.9917
-4.7763 -1.0030 -1.9975 0.9791
-4.3408 -2.2319 -1.9977 0.9791
-4.1246 -2.6104 -1.9978 0.9791
-3.8757 -2.9681 -1.9979 0.9791
-3.5958 -3.3023 -1.9981 0.9791
-3.2873 -3.6102 -1.9983 0.9791
-2.9525 -3.8895 -1.9986 0.9791
-2.5942 -4.1379 -1.9988 0.9791
-2.2151 -4.3534 -1.9991 0.9791
-0.9840 -4.7869 -2.0001 0.9791
-0.1179 -4.8873 -2.0008 0.9791
0.7527 -4.8323 -2.0016 0.9791
1.1809 -4.7468 -2.0020 0.9791
3.7401 -3.1616 -2.0044 0.9791
4.2435 -2.4474 -2.0049 0.9791
4.4454 -2.0594 -2.0051 0.9790
4.6118 -1.6549 -2.0053 0.9790
4.7415 -1.2370 -2.0055 0.9790
4.8332 -0.8093 -2.0057 0.9790
4.8864 -0.3749 -2.0058 0.9790
4.8756 0.4993 -2.0059 0.9790
4.8117 0.9322 -2.0059 0.9790
4.7093 1.3576 -2.0059 0.9790
4.5693 1.7722 -2.0058 0.9790
4.1813 2.5556 -2.0056 0.9790
3.9364 2.9181 -2.0055 0.9790
3.3546 3.5704 -2.0051 0.9790
2.6662 4.1086 -2.0046 0.9791
1.0604 4.7785 -2.0033 0.9791
0.6298 4.8532 -2.0030 0.9791
0.1944 4.8892 -2.0026 0.9791
-0.2424 4.8861 -2.0022 0.9791
-0.6772 4.8441 -2.0018 0.9791
-1.1063 4.7635 -2.0015 0.9791
-1.9344 4.4895 -2.0007 0.9791
-2.3267 4.2983 -2.0004 0.9791
-2.7003 4.0729 -2.0000 0.9791
-3.6804 3.2111 -1.9990 0.9791
-3.9517 2.8696 -1.9988 0.9791
-4.1913 2.5054 -1.9985 0.9791
-1.9580 0.1810 -0.8048 0.9915
-1.9008 0.0055 -0.7780 0.9918
-4.7101 -1.2785 -1.9975 0.9791
-4.5774 -1.6936 -1.9975 0.9791
-3.3984 -3.5056 -1.9983 0.9791
-3.0725 -3.7952 -1.9985 0.9791
-2.7221 -4.0546 -1.9987 0.9791
-1.9589 -4.4751 -1.9993 0.9791
-1.5522 -4.6327 -1.9997 0.9791
-1.1330 -4.7535 -2.0000 0.9791
-0.2705 -4.8809 -2.0007 0.9791
0.1660 -4.8865 -2.0011 0.9791
0.6013 -4.8531 -2.0014 0.9791
1.0320 -4.7810 -2.0018 0.9791
1.8657 -4.5233 -2.0026 0.9791
2.2621 -4.3397 -2.0029 0.9791
2.6407 -4.1213 -2.0033 0.9791
3.3320 -3.5877 -2.0040 0.9791
3.6393 -3.2768 -2.0043 0.9791
4.5577 -1.7981 -2.0053 0.9790
4.7004 -1.3845 -2.0055 0.9790
4.7494 1.2098 -2.0059 0.9790
4.6225 1.6286 -2.0059 0.9790
4.4586 2.0343 -2.0058 0.9790
4.2592 2.4238 -2.0057 0.9790
3.7602 3.1415 -2.0054 0.9790
3.4646 3.4640 -2.0052 0.9790
3.1415 3.7588 -2.0049 0.9791
2.7934 4.0235 -2.0047 0.9791
2.4230 4.2560 -2.0044 0.9791
0.3471 4.8810 -2.0027 0.9791
-0.0897 4.8916 -2.0024 0.9791
-0.5255 4.8632 -2.0020 0.9791
-0.9570 4.7961 -2.0016 0.9791
-2.5719 4.1555 -2.0001 0.9791
-2.9318 3.9089 -1.9998 0.9791
-3.5785 3.3247 -1.9992 0.9791
-3.8602 2.9918 -1.9989 0.9791
-4.7712 1.0308 -1.9978 0.9791
-1.9531 0.2424 -0.8055 0.9915
-1.9440 -0.2829 -0.8040 0.9915
-4.6280 -1.5497 -1.9975 0.9791
-4.2794 -2.3475 -1.9977 0.9791
-4.0533 -2.7201 -1.9978 0.9791
-3.5061 -3.3976 -1.9982 0.9791
-2.8473 -3.9674 -1.9987 0.9791
-2.4824 -4.2062 -1.9989 0.9791
-2.0977 -4.4115 -1.9992 0.9791
-1.6961 -4.5817 -1.9995 0.9791
-1.2809 -4.7155 -1.9999 0.9791
-0.8553 -4.8118 -2.0002 0.9791
-0.4228 -4.8698 -2.0006 0.9791
0.0132 -4.8890 -2.0009 0.9791
0.8820 -4.8106 -2.0017 0.9791
1.3078 -4.7137 -2.0021 0.9791
1.7234 -4.5791 -2.0024 0.9791
3.5350 -3.3887 -2.0042 0.9791
3.8237 -3.0603 -2.0045 0.9791
4.0820 -2.7075 -2.0047 0.9791
4.6547 -1.5307 -2.0054 0.9790
4.7730 -1.1095 -2.0056 0.9790
4.8533 -0.6794 -2.0057 0.9790
4.8972 0.1938 -2.0059 0.9790
4.8605 0.6298 -2.0059 0.9790
4.6712 1.4834 -2.0059 0.9790
4.1112 2.6667 -2.0056 0.9790
2.9178 3.9345 -2.0048 0.9791
2.5549 4.1784 -2.0045 0.9791
1.7713 4.5645 -2.0039 0.9791
1.3569 4.7036 -2.0036 0.9791
0.9318 4.8050 -2.0032 0.9791
0.4994 4.8681 -2.0029 0.9791
0.0632 4.8924 -2.0025 0.9791
-0.3733 4.8776 -2.0021 0.9791
-2.0539 4.4357 -2.0006 0.9791
-2.4409 4.2341 -2.0003 0.9791
-2.8084 3.9988 -1.9999 0.9791
-3.1533 3.7318 -1.9996 0.9791
-3.4731 3.4351 -1.9993 0.9791
-4.0270 2.7625 -1.9987 0.9791
-4.6131 1.5973 -1.9980 0.9791
-2.0051 0.3127 -0.8306 0.9913
-1.9497 0.1277 -0.7997 0.9916
-4.7807 -0.9818 -1.9975 0.9791
-4.3506 -2.2126 -1.9976 0.9791
-4.1362 -2.5920 -1.9978 0.9791
-3.6104 -3.2862 -1.9981 0.9791
-2.6125 -4.1263 -1.9988 0.9791
-2.2344 -4.3435 -1.9991 0.9791
-1.0052 -4.7824 -2.0001 0.9791
0.2970 -4.8806 -2.0012 0.9791
0.7312 -4.8355 -2.0016 0.9791
1.1598 -4.7519 -2.0019 0.9791
2.7504 -4.0492 -2.0034 0.9791
3.4272 -3.4973 -2.0041 0.9791
3.7260 -3.1781 -2.0044 0.9791
3.9952 -2.8335 -2.0046 0.9791
4.2326 -2.4662 -2.0049 0.9791
4.6044 -1.6753 -2.0053 0.9790
4.7359 -1.2580 -2.0055 0.9790
4.8847 -0.3966 -2.0058 0.9790
4.9008 0.0407 -2.0058 0.9790
4.8778 0.4777 -2.0059 0.9790
4.7153 1.3367 -2.0059 0.9790
4.5771 1.7519 -2.0058 0.9790
4.4024 2.1531 -2.0057 0.9790
3.9493 2.9007 -2.0055 0.9790
3.3704 3.5555 -2.0051 0.9790
2.6844 4.0968 -2.0046 0.9791
2.3079 4.3193 -2.0043 0.9791
1.5033 4.6592 -2.0037 0.9791
1.0815 4.7739 -2.0033 0.9791
-0.6557 4.8471 -2.0019 0.9791
-1.5059 4.6517 -2.0011 0.9791
-1.9145 4.4980 -2.0007 0.9791
-2.3076 4.3086 -2.0004 0.9791
-3.0354 3.8287 -1.9997 0.9791
-3.3642 3.5421 -1.9994 0.9791
-4.1802 2.5240 -1.9985 0.9791
-4.3881 2.1408 -1.9983 0.9791
-4.5611 1.7407 -1.9981 0.9791
-2.2015 0.4142 -0.9168 0.9904
-2.1406 -0.3703 -0.8891 0.9907
-4.7157 -1.2576 -1.9975 0.9791
-4.5849 -1.6733 -1.9975 0.9791
-4.4175 -2.0756 -1.9976 0.9791
-3.9790 -2.8279 -1.9979 0.9791
-3.7112 -3.1717 -1.9980 0.9791
-2.3688 -4.2714 -1.9990 0.9791
-1.9787 -4.4663 -1.9993 0.9791
-1.5727 -4.6257 -1.9996 0.9791
-1.1541 -4.7484 -2.0000 0.9791
-0.2921 -4.8796 -2.0007 0.9791
1.0107 -4.7855 -2.0018 0.9791
1.4338 -4.6772 -2.0022 0.9791
1.8456 -4.5315 -2.0026 0.9791
2.2429 -4.3496 -2.0029 0.9791
3.3161 -3.6025 -2.0039 0.9791
3.6247 -3.2929 -2.0043 0.9791
4.5497 -1.8183 -2.0053 0.9790
4.6942 -1.4054 -2.0055 0.9790
4.8996 -0.1125 -2.0058 0.9790
4.8419 0.7599 -2.0059 0.9790
3.7741 3.1248 -2.0054 0.9790
3.4800 3.4486 -2.0052 0.9790
3.1582 3.7448 -2.0049 0.9790
2.8112 4.0111 -2.0047 0.9791
2.4419 4.2453 -2.0044 0.9791
2.0532 4.4455 -2.0041 0.9791
1.2302 4.7380 -2.0035 0.9791
0.8026 4.8280 -2.0031 0.9791
0.3687 4.8795 -2.0027 0.9791
-0.0680 4.8920 -2.0024 0.9791
-0.5040 4.8655 -2.0020 0.9791
-1.7731 4.5559 -2.0009 0.9791
-2.5535 4.1669 -2.0002 0.9791
-2.9145 3.9219 -1.9998 0.9791
-3.2521 3.6457 -1.9995 0.9791
-4.0995 2.6535 -1.9986 0.9791
-4.3193 2.2770 -1.9984 0.9791
-4.6542 1.4730 -1.9980 0.9791
-1.9516 0.2510 -0.8053 0.9915
-4.7527 -1.1096 -1.9975 0.9791
-4.2898 -2.3285 -1.9977 0.9791
-3.5211 -3.3820 -1.9982 0.9791
-2.5010 -4.1951 -1.9989 0.9791
-2.1172 -4.4021 -1.9992 0.9791
-1.7164 -4.5741 -1.9995 0.9791
-1.3018 -4.7097 -1.9999 0.9791
-0.8767 -4.8079 -2.0002 0.9791
-0.4444 -4.8678 -2.0006 0.9791
0.4277 -4.8711 -2.0013 0.9791
0.8607 -4.8145 -2.0017 0.9791
1.7030 -4.5867 -2.0024 0.9791
2.8581 -3.9742 -2.0035 0.9791
3.2017 -3.7041 -2.0038 0.9791
3.5199 -3.4043 -2.0041 0.9791
4.0699 -2.7255 -2.0047 0.9791
4.2973 -2.3519 -2.0050 0.9790
4.4905 -1.9595 -2.0052 0.9790
4.8502 -0.7009 -2.0057 0.9790
4.8980 0.1721 -2.0059 0.9790
4.8632 0.6083 -2.0059 0.9790
4.7896 1.0396 -2.0059 0.9790
4.5285 1.8740 -2.0058 0.9790
4.1230 2.6485 -2.0056 0.9790
3.8700 3.0054 -2.0054 0.9790
3.2738 3.6445 -2.0050 0.9790
2.9353 3.9215 -2.0048 0.9791
1.3778 4.6975 -2.0036 0.9791
0.9531 4.8009 -2.0032 0.9791
0.0849 4.8921 -2.0025 0.9791
-0.3517 4.8792 -2.0021 0.9791
-1.6300 4.6094 -2.0010 0.9791
-2.0343 4.4448 -2.0006 0.9791
-3.1368 3.7457 -1.9996 0.9791
-3.7513 3.1278 -1.9990 0.9791
-4.2462 2.4109 -1.9984 0.9791
-4.4438 2.0223 -1.9982 0.9791
-1.9518 0.1365 -0.8008 0.9916
-4.7850 -0.9606 -1.9975 0.9791
-3.9018 -2.9336 -1.9979 0.9791
-3.6249 -3.2702 -1.9981 0.9791
-2.2536 -4.3335 -1.9991 0.9791
-1.8583 -4.5180 -1.9994 0.9791
0.2753 -4.8818 -2.0012 0.9791
0.7098 -4.8387 -2.0015 0.9791
1.9666 -4.4806 -2.0027 0.9791
2.7324 -4.0614 -2.0034 0.9791
3.4116 -3.5124 -2.0040 0.9791
3.7119 -3.1946 -2.0043 0.9791
3.9826 -2.8512 -2.0046 0.9791
4.2216 -2.4849 -2.0049 0.9791
4.4269 -2.0987 -2.0051 0.9790
4.5969 -1.6957 -2.0053 0.9790
4.7303 -1.2790 -2.0055 0.9790
4.8258 -0.8521 -2.0056 0.9790
4.8798 0.4560 -2.0059 0.9790
4.7211 1.3158 -2.0059 0.9790
4.5849 1.7316 -2.0058 0.9790
4.4119 2.1336 -2.0058 0.9790
3.0565 3.8280 -2.0049 0.9791
2.7025 4.0849 -2.0046 0.9791
1.9332 4.4987 -2.0040 0.9791
0.2377 4.8873 -2.0026 0.9791
-0.1991 4.8882 -2.0023 0.9791
-0.6342 4.8500 -2.0019 0.9791
-1.0641 4.7732 -2.0015 0.9791
-1.4853 4.6584 -2.0011 0.9791
-2.2885 4.3188 -2.0004 0.9791
-2.6641 4.0967 -2.0000 0.9791
-3.0184 3.8421 -1.9997 0.9791
-3.3485 3.5570 -1.9994 0.9791
-3.6519 3.2437 -1.9991 0.9791
-3.9261 2.9046 -1.9988 0.9791
-4.1690 2.5425 -1.9985 0.9791
-4.3786 2.1602 -1.9983 0.9791
-4.5534 1.7609 -1.9981 0.9791
-4.6919 1.3476 -1.9979 0.9791
-4.7930 0.9237 -1.9978 0.9791
-1.9099 0.0225 -0.7817 0.9918
-2.1068 -0.3549 -0.8744 0.9908
-4.7213 -1.2367 -1.9975 0.9791
-4.5922 -1.6529 -1.9975 0.9791
-4.4267 -2.0560 -1.9976 0.9791
-4.2259 -2.4428 -1.9977 0.9791
-3.7252 -3.1553 -1.9980 0.9791
-3.4293 -3.4753 -1.9982 0.9791
-2.7579 -4.0303 -1.9987 0.9791
-2.3878 -4.2608 -1.9990 0.9791
-0.7475 -4.8299 -2.0003 0.9791
-0.3137 -4.8782 -2.0007 0.9791
0.1226 -4.8877 -2.0010 0.9791
0.5582 -4.8582 -2.0014 0.9791
1.4131 -4.6834 -2.0022 0.9791
1.8255 -4.5396 -2.0025 0.9791
2.2235 -4.3595 -2.0029 0.9791
2.6040 -4.1445 -2.0033 0.9791
3.3000 -3.6171 -2.0039 0.9791
3.8914 -2.9741 -2.0045 0.9791
4.3590 -2.2359 -2.0050 0.9790
4.5415 -1.8384 -2.0053 0.9790
4.7968 -1.0024 -2.0056 0.9790
4.8673 -0.5706 -2.0057 0.9790
4.8452 0.7385 -2.0059 0.9790
4.7600 1.1677 -2.0059 0.9790
4.4765 1.9947 -2.0058 0.9790
4.0504 2.7580 -2.0055 0.9790
3.7879 3.1080 -2.0054 0.9790
3.4953 3.4332 -2.0052 0.9790
3.1747 3.7308 -2.0049 0.9790
2.8290 3.9986 -2.0047 0.9791
2.0729 4.4364 -2.0041 0.9791
1.6687 4.6029 -2.0038 0.9791
0.8240 4.8245 -2.0031 0.9791
0.3903 4.8779 -2.0028 0.9791
-0.0463 4.8923 -2.0024 0.9791
-1.7529 4.5638 -2.0009 0.9791
-3.2359 3.6601 -1.9995 0.9791
-3.8336 3.0260 -1.9989 0.9791
-4.4963 1.9024 -1.9982 0.9791
-1.9362 0.0833 -0.7932 0.9917
-1.9385 -0.0898 -0.7942 0.9916
-1.9484 -0.2659 -0.8048 0.9915
-4.7576 -1.0886 -1.9975 0.9791
-4.6416 -1.5086 -1.9975 0.9791
-4.0772 -2.6840 -1.9978 0.9791
-3.8219 -3.0372 -1.9980 0.9791
-2.8823 -3.9420 -1.9986 0.9791
-2.5196 -4.1839 -1.9989 0.9791
-2.1367 -4.3926 -1.9992 0.9791
-0.4660 -4.8657 -2.0005 0.9791
0.4061 -4.8729 -2.0013 0.9791
1.2660 -4.7250 -2.0020 0.9791
2.0861 -4.4265 -2.0028 0.9791
3.1852 -3.7182 -2.0038 0.9791
3.5047 -3.4199 -2.0041 0.9791
3.7964 -3.0941 -2.0044 0.9791
4.0578 -2.7435 -2.0047 0.9791
4.6409 -1.5719 -2.0054 0.9790
4.7630 -1.1518 -2.0055 0.9790
4.8470 -0.7224 -2.0057 0.9790
4.8924 -0.2872 -2.0058 0.9790
4.8987 0.1504 -2.0059 0.9790
4.1347 2.6302 -2.0056 0.9790
3.8833 2.9883 -2.0054 0.9790
3.2899 3.6300 -2.0050 0.9790
2.5919 4.1557 -2.0045 0.9791
2.2106 4.3697 -2.0042 0.9791
1.8118 4.5487 -2.0039 0.9791
0.5426 4.8636 -2.0029 0.9791
-0.3301 4.8808 -2.0021 0.9791
-0.7640 4.8310 -2.0018 0.9791
-1.6096 4.6167 -2.0010 0.9791
-2.4033 4.2557 -2.0003 0.9791
-3.1202 3.7596 -1.9996 0.9791
-4.0024 2.7982 -1.9987 0.9791
-4.7262 1.2213 -1.9979 0.9791
-1.9130 -0.0288 -0.7830 0.9918
-1.9573 -0.2050 -0.8055 0.9915
-4.7892 -0.9394 -1.9975 0.9791
-3.9148 -2.9162 -1.9979 0.9791
-3.6394 -3.2541 -1.9981 0.9791
-3.3350 -3.5661 -1.9983 0.9791
-3.0040 -3.8498 -1.9985 0.9791
-2.6489 -4.1030 -1.9988 0.9791
0.6883 -4.8417 -2.0015 0.9791
1.5382 -4.6441 -2.0023 0.9791
1.9467 -4.4893 -2.0026 0.9791
2.3397 -4.2985 -2.0030 0.9791
2.7143 -4.0734 -2.0034 0.9791
3.0673 -3.8157 -2.0037 0.9791
3.6977 -3.2110 -2.0043 0.9791
3.9699 -2.8688 -2.0046 0.9791
4.2105 -2.5036 -2.0049 0.9791
4.7245 -1.3000 -2.0055 0.9790
4.8220 -0.8735 -2.0056 0.9790
4.8810 -0.4399 -2.0058 0.9790
4.9010 -0.0028 -2.0058 0.9790
4.5925 1.7113 -2.0058 0.9790
4.4214 2.1140 -2.0058 0.9790
4.2149 2.4998 -2.0056 0.9790
3.9749 2.8656 -2.0055 0.9790
3.0735 3.8145 -2.0049 0.9791
2.3462 4.2987 -2.0043 0.9791
1.5446 4.6457 -2.0037 0.9791
0.6943 4.8445 -2.0030 0.9791
-0.6127 4.8528 -2.0019 0.9791
-2.2694 4.3289 -2.0004 0.9791
-2.6460 4.1085 -2.0001 0.9791
-3.0014 3.8555 -1.9997 0.9791
-3.6375 3.2598 -1.9991 0.9791
-3.9132 2.9220 -1.9988 0.9791
-4.1577 2.5610 -1.9985 0.9791
-4.3690 2.1797 -1.9983 0.9791
-4.5455 1.7811 -1.9981 0.9791
-4.6859 1.3684 -1.9979 0.9791
-1.9572 0.2073 -0.8055 0.9915
-1.9141 0.0310 -0.7835 0.9918
-1.9532 -0.1431 -0.8015 0.9916
-2.7757 -4.0180 -1.9987 0.9791
-2.0182 -4.4485 -1.9993 0.9791
0.1010 -4.8881 -2.0010 0.9791
0.9683 -4.7942 -2.0018 0.9791
1.8053 -4.5476 -2.0025 0.9791
2.9465 -3.9095 -2.0036 0.9791
3.2839 -3.6317 -2.0039 0.9791
3.5953 -3.3248 -2.0042 0.9791
4.1300 -2.6338 -2.0048 0.9791
4.6815 -1.4469 -2.0054 0.9790
4.8929 0.2817 -2.0059 0.9790
4.8484 0.7170 -2.0059 0.9790
4.6438 1.5669 -2.0059 0.9790
4.4853 1.9749 -2.0058 0.9790
4.2911 2.3669 -2.0057 0.9790
4.0626 2.7400 -2.0056 0.9790
2.4795 4.2235 -2.0044 0.9791
2.0926 4.4272 -2.0041 0.9791
1.6891 4.5954 -2.0038 0.9791
0.8454 4.8208 -2.0031 0.9791
-0.0246 4.8925 -2.0024 0.9791
-1.3183 4.7088 -2.0013 0.9791
-1.7327 4.5716 -2.0009 0.9791
-2.8796 3.9476 -1.9998 0.9791
-4.0758 2.6897 -1.9986 0.9791
-4.2990 2.3152 -1.9984 0.9791
-4.4878 1.9223 -1.9982 0.9791
-4.7571 1.0941 -1.9978 0.9791
-1.9479 0.2681 -0.8047 0.9915
-1.9393 0.0921 -0.7946 0.9916
-1.9354 -0.0811 -0.7928 0.9917
-1.9503 -0.2573 -0.8051 0.9915
-4.6482 -1.4880 -1.9975 0.9791
-4.4971 -1.8967 -1.9976 0.9791
-2.8998 -3.9291 -1.9986 0.9791
-2.5381 -4.1727 -1.9989 0.9791
-2.1561 -4.3831 -1.9992 0.9791
-0.9192 -4.7999 -2.0002 0.9791
-0.0518 -4.8886 -2.0009 0.9791
0.3845 -4.8746 -2.0013 0.9791
0.8179 -4.8218 -2.0016 0.9791
1.2450 -4.7305 -2.0020 0.9791
2.0665 -4.4357 -2.0028 0.9791
-1.4993 -0.2731 -0.6642 0.9934
-3.7134 -2.6890 -1.9981 0.9802
-3.4591 -3.0097 -1.9983 0.9802
-2.8698 -3.5772 -1.9987 0.9802
-2.1891 -4.0312 -1.9992 0.9802
-1.4385 -4.3573 -1.9998 0.9802
-1.0443 -4.4689 -2.0001 0.9802
-0.6416 -4.5450 -2.0004 0.9802
0.1762 -4.5883 -2.0011 0.9802
0.5849 -4.5551 -2.0015 0.9802
1.3854 -4.3802 -2.0022 0.9802
1.7709 -4.2400 -2.0025 0.9802
2.4969 -3.8591 -2.0032 0.9801
2.8316 -3.6216 -2.0035 0.9801
3.4310 -3.0618 -2.0041 0.9801
3.6910 -2.7439 -2.0044 0.9801
4.2871 -1.6694 -2.0051 0.9801
4.5163 -0.8812 -2.0054 0.9801
4.5771 -0.4750 -2.0055 0.9801
4.6014 -0.0648 -2.0056 0.9801
4.5890 0.3459 -2.0056 0.9801
4.3336 1.5484 -2.0056 0.9801
4.1781 1.9287 -2.0055 0.9801
3.9892 2.2936 -2.0054 0.9801
3.7684 2.6401 -2.0053 0.9801
3.5177 2.9654 -2.0051 0.9801
3.2388 3.2671 -2.0049 0.9801
2.9342 3.5425 -2.0047 0.9801
2.2575 4.0065 -2.0042 0.9801
1.5093 4.3426 -2.0036 0.9801
0.7134 4.5402 -2.0030 0.9801
-0.9187 4.4999 -2.0016 0.9802
-2.0762 4.0940 -2.0005 0.9802
-2.4326 3.8918 -2.0002 0.9802
-3.3746 3.1075 -1.9993 0.9802
-3.8721 2.4578 -1.9988 0.9802
-4.0754 2.1024 -1.9985 0.9802
-4.2462 1.7304 -1.9983 0.9802
-1.5770 0.4838 -0.7189 0.9928
-1.5277 0.0454 -0.6661 0.9934
-1.5129 -0.2270 -0.6667 0.9933
-4.1916 -1.8561 -1.9978 0.9802
-4.0095 -2.2227 -1.9979 0.9802
-3.5513 -2.9001 -1.9982 0.9802
-3.2788 -3.2056 -1.9984 0.9802
-1.5738 -4.3100 -1.9997 0.9802
3.0373 -3.4515 -2.0037 0.9801
3.3335 -3.1673 -2.0040 0.9801
3.6033 -2.8578 -2.0043 0.9801
3.8443 -2.5253 -2.0046 0.9801
4.0547 -2.1726 -2.0048 0.9801
4.2327 -1.8025 -2.0050 0.9801
4.4864 -1.0219 -2.0053 0.9801
4.5971 -0.2085 -2.0056 0.9801
4.5975 0.2023 -2.0056 0.9801
4.5612 0.6116 -2.0056 0.9801
4.0590 2.1679 -2.0055 0.9801
3.3394 3.1644 -2.0050 0.9801
2.7235 3.7066 -2.0046 0.9801
2.3817 3.9342 -2.0043 0.9801
0.8550 4.5160 -2.0031 0.9801
0.4487 4.5735 -2.0028 0.9801
-0.3709 4.5788 -2.0021 0.9802
-0.7777 4.5267 -2.0017 0.9802
-1.1781 4.4385 -2.0014 0.9802
-1.5691 4.3150 -2.0010 0.9802
-1.9473 4.1571 -2.0007 0.9802
-2.9770 3.4915 -1.9997 0.9802
-3.2760 3.2116 -1.9994 0.9802
-3.5490 2.9062 -1.9991 0.9802
-3.7935 2.5777 -1.9989 0.9802
-4.0079 2.2288 -1.9986 0.9802
-4.1902 1.8623 -1.9984 0.9802
-1.5904 0.5428 -0.7324 0.9927
-1.5124 0.2290 -0.6667 0.9933
-1.5296 0.0934 -0.6679 0.9933
-1.5226 -0.1800 -0.6682 0.9933
-1.5153 -0.3182 -0.6748 0.9933
-1.5763 -0.4812 -0.7183 0.9928
-4.2474 -1.7242 -1.9978 0.9802
-4.0769 -2.0963 -1.9979 0.9802
-3.8739 -2.4517 -1.9980 0.9802
-3.3772 -3.1015 -1.9983 0.9802
-3.0874 -3.3907 -1.9985 0.9802
-2.7730 -3.6530 -1.9988 0.9802
-2.4364 -3.8862 -1.9990 0.9802
-1.3212 -4.3945 -1.9999 0.9802
-0.5195 -4.5608 -2.0005 0.9802
0.7068 -4.5380 -2.0016 0.9802
1.8840 -4.1912 -2.0026 0.9801
2.9278 -3.5446 -2.0036 0.9801
3.2328 -3.2698 -2.0039 0.9801
3.9847 -2.2981 -2.0047 0.9801
4.1742 -1.9338 -2.0049 0.9801
4.3305 -1.5539 -2.0051 0.9801
4.4522 -1.1616 -2.0053 0.9801
4.5383 -0.7599 -2.0054 0.9801
4.6016 0.0586 -2.0056 0.9801
4.5181 0.8753 -2.0057 0.9801
3.9262 2.3997 -2.0054 0.9801
3.4368 3.0586 -2.0051 0.9801
3.1500 3.3526 -2.0049 0.9801
2.8381 3.6198 -2.0046 0.9801
2.1492 4.0654 -2.0041 0.9801
-1.0390 4.4734 -2.0015 0.9802
-2.1851 4.0367 -2.0004 0.9802
-2.5360 3.8250 -2.0001 0.9802
-2.8666 3.5830 -1.9998 0.9802
-3.1743 3.3126 -1.9995 0.9802
-4.1302 1.9923 -1.9985 0.9802
-4.2910 1.6158 -1.9983 0.9802
-1.5621 0.4337 -0.7065 0.9930
-1.4987 0.2751 -0.6640 0.9934
-1.5274 0.1412 -0.6685 0.9933
-1.5229 0.0044 -0.6637 0.9934
-1.5281 -0.1324 -0.6685 0.9933
-1.5015 -0.2666 -0.6646 0.9934
-1.5585 -0.4230 -0.7038 0.9930
-1.5978 -0.5912 -0.7425 0.9926
-4.1403 -1.9678 -1.9979 0.9802
-2.8857 -3.5644 -1.9987 0.9802
-1.8398 -4.2029 -1.9995 0.9802
-1.4578 -4.3508 -1.9998 0.9802
-1.0641 -4.4642 -2.0001 0.9802
-0.2540 -4.5838 -2.0008 0.9802
0.9691 -4.4899 -2.0018 0.9802
1.7520 -4.2477 -2.0025 0.9802
2.1243 -4.0752 -2.0029 0.9801
2.4797 -3.8701 -2.0032 0.9801
2.8155 -3.6341 -2.0035 0.9801
3.4174 -3.0770 -2.0041 0.9801
3.6787 -2.7602 -2.0044 0.9801
4.4136 -1.3001 -2.0052 0.9801
4.6011 -0.0852 -2.0056 0.9801
4.5432 0.7337 -2.0057 0.9801
4.4596 1.1360 -2.0056 0.9801
4.3404 1.5292 -2.0056 0.9801
4.1866 1.9102 -2.0055 0.9801
3.7801 2.6233 -2.0053 0.9801
3.5308 2.9498 -2.0051 0.9801
3.2533 3.2527 -2.0049 0.9801
2.9499 3.5295 -2.0047 0.9801
2.6230 3.7781 -2.0045 0.9801
1.9095 4.1829 -2.0039 0.9801
1.5285 4.3359 -2.0036 0.9801
0.3259 4.5836 -2.0027 0.9801
-0.0842 4.5936 -2.0023 0.9802
-0.4935 4.5670 -2.0020 0.9802
-1.6841 4.2711 -2.0009 0.9802
-3.8611 2.4750 -1.9988 0.9802
-4.0660 2.1205 -1.9986 0.9802
-4.2386 1.7492 -1.9983 0.9802
-1.5792 0.4921 -0.7209 0.9928
-1.5211 0.1887 -0.6680 0.9933
-1.5296 -0.0845 -0.6676 0.9933
-1.5882 -0.5318 -0.7299 0.9927
-4.1997 -1.8375 -1.9978 0.9802
-2.9955 -3.4724 -1.9986 0.9802
-2.3314 -3.9503 -1.9991 0.9802
-0.8033 -4.5189 -2.0003 0.9802
-0.3971 -4.5733 -2.0006 0.9802
0.0124 -4.5913 -2.0010 0.9802
0.4220 -4.5727 -2.0013 0.9802
0.8283 -4.5177 -2.0017 0.9802
1.6184 -4.3001 -2.0024 0.9802
1.9958 -4.1394 -2.0027 0.9801
2.7004 -3.7201 -2.0034 0.9801
3.3194 -3.1821 -2.0040 0.9801
3.5905 -2.8737 -2.0043 0.9801
4.2247 -1.8212 -2.0050 0.9801
4.3707 -1.4373 -2.0052 0.9801
4.5572 -0.6379 -2.0055 0.9801
4.5961 -0.2289 -2.0055 0.9801
4.5984 0.1819 -2.0056 0.9801
4.5639 0.5914 -2.0056 0.9801
4.4929 0.9961 -2.0056 0.9801
4.3861 1.3929 -2.0056 0.9801
4.0685 2.1499 -2.0055 0.9801
3.6213 2.8382 -2.0052 0.9801
3.3535 3.1496 -2.0050 0.9801
3.0588 3.4358 -2.0048 0.9801
2.7399 3.6945 -2.0046 0.9801
2.3991 3.9236 -2.0043 0.9801
2.0393 4.1214 -2.0040 0.9801
1.6633 4.2863 -2.0038 0.9801
0.8750 4.5122 -2.0031 0.9801
0.0594 4.5943 -2.0024 0.9802
-0.3506 4.5805 -2.0021 0.9802
-1.1585 4.4437 -2.0014 0.9802
-1.5499 4.3219 -2.0010 0.9802
-1.9289 4.1657 -2.0007 0.9802
-2.2924 3.9764 -2.0003 0.9802
-2.6375 3.7555 -2.0000 0.9802
-3.2618 3.2261 -1.9994 0.9802
-3.7821 2.5945 -1.9989 0.9802
-3.9980 2.2466 -1.9986 0.9802
-4.1820 1.8808 -1.9984 0.9802
-1.5919 0.5512 -0.7342 0.9927
-1.5444 0.3845 -0.6936 0.9931
-1.5107 0.2356 -0.6664 0.9934
-1.5115 -0.3104 -0.6725 0.9933
-3.6524 -2.7715 -1.9982 0.9802
-3.1024 -3.3770 -1.9985 0.9802
-2.7891 -3.6406 -1.9988 0.9802
-2.4536 -3.8754 -1.9990 0.9802
-2.0984 -4.0793 -1.9993 0.9802
-1.7265 -4.2508 -1.9996 0.9802
-1.3407 -4.3886 -1.9999 0.9802
-0.5397 -4.5584 -2.0005 0.9802
0.2789 -4.5834 -2.0012 0.9802
0.6867 -4.5410 -2.0016 0.9802
1.0892 -4.4625 -2.0019 0.9802
1.4831 -4.3483 -2.0023 0.9802
1.8654 -4.1994 -2.0026 0.9801
2.5827 -3.8024 -2.0033 0.9801
2.9120 -3.5575 -2.0036 0.9801
3.4988 -2.9844 -2.0042 0.9801
3.7516 -2.6607 -2.0045 0.9801
4.1656 -1.9523 -2.0049 0.9801
4.3235 -1.5731 -2.0051 0.9801
4.4470 -1.1813 -2.0053 0.9801
4.5867 -0.3724 -2.0055 0.9801
4.5801 0.4485 -2.0056 0.9801
4.5219 0.8552 -2.0057 0.9801
4.2978 1.6450 -2.0056 0.9801
3.9368 2.3822 -2.0054 0.9801
3.1648 3.3386 -2.0049 0.9801
1.7965 4.2324 -2.0039 0.9801
1.4117 4.3751 -2.0036 0.9801
0.6116 4.5548 -2.0029 0.9801
-0.2073 4.5895 -2.0022 0.9802
-0.6157 4.5519 -2.0019 0.9802
-1.0191 4.4780 -2.0015 0.9802
-1.4142 4.3685 -2.0011 0.9802
-2.1672 4.0463 -2.0005 0.9802
-2.5190 3.8363 -2.0001 0.9802
-2.8507 3.5957 -1.9998 0.9802
-3.1596 3.3266 -1.9995 0.9802
-3.9260 2.3705 -1.9987 0.9802
-1.4968 0.2816 -0.6638 0.9934
-1.5267 0.1480 -0.6685 0.9933
-1.5239 0.0112 -0.6641 0.9934
-1.5556 -0.4149 -0.7017 0.9930
-4.1490 -1.9494 -1.9979 0.9802
-3.9588 -2.3119 -1.9980 0.9802
-3.7371 -2.6559 -1.9981 0.9802
-3.4856 -2.9789 -1.9983 0.9802
-2.2248 -4.0116 -1.9992 0.9802
-1.0838 -4.4595 -2.0001 0.9802
-0.6819 -4.5391 -2.0004 0.9802
-0.2743 -4.5826 -2.0007 0.9802
0.1355 -4.5896 -2.0011 0.9802
1.3465 -4.3923 -2.0021 0.9802
1.7332 -4.2554 -2.0025 0.9802
2.1062 -4.0846 -2.0028 0.9801
2.4625 -3.8811 -2.0032 0.9801
2.7993 -3.6465 -2.0035 0.9801
3.6664 -2.7765 -2.0044 0.9801
3.9000 -2.4387 -2.0046 0.9801
4.4078 -1.3196 -2.0052 0.9801
4.5727 -0.5155 -2.0055 0.9801
4.6007 -0.1056 -2.0056 0.9801
4.3472 1.5100 -2.0056 0.9801
3.7917 2.6066 -2.0053 0.9801
3.5438 2.9342 -2.0051 0.9801
2.6398 3.7665 -2.0045 0.9801
2.2930 3.9864 -2.0042 0.9801
1.9280 4.1744 -2.0040 0.9801
0.7537 4.5338 -2.0030 0.9801
0.3462 4.5822 -2.0027 0.9801
-0.0638 4.5940 -2.0023 0.9802
-0.4733 4.5692 -2.0020 0.9802
-0.8788 4.5079 -2.0016 0.9802
-1.2771 4.4108 -2.0013 0.9802
-1.6652 4.2786 -2.0009 0.9802
-2.3981 3.9133 -2.0002 0.9802
-3.3470 3.1374 -1.9993 0.9802
-3.6130 2.8259 -1.9990 0.9802
-4.0566 2.1385 -1.9986 0.9802
-1.5812 0.5004 -0.7228 0.9928
-1.5239 0.3363 -0.6801 0.9932
-1.5287 0.0590 -0.6667 0.9933
-1.5335 -0.3580 -0.6863 0.9932
-1.5865 -0.5234 -0.7281 0.9927
-4.2078 -1.8188 -1.9978 0.9802
-3.3070 -3.1764 -1.9984 0.9802
-3.0108 -3.4590 -1.9986 0.9802
-2.3489 -3.9399 -1.9991 0.9802
-1.9884 -4.1343 -1.9994 0.9802
-0.8233 -4.5153 -2.0003 0.9802
-0.0079 -4.5913 -2.0010 0.9802
1.2085 -4.4319 -2.0020 0.9802
1.5993 -4.3072 -2.0024 0.9802
1.9774 -4.1481 -2.0027 0.9801
2.3399 -3.9559 -2.0031 0.9801
3.0065 -3.4783 -2.0037 0.9801
4.2166 -1.8399 -2.0050 0.9801
4.5543 -0.6581 -2.0054 0.9801
4.5950 -0.2493 -2.0055 0.9801
4.5665 0.5711 -2.0056 0.9801
4.4973 0.9762 -2.0056 0.9801
4.2521 1.7597 -2.0056 0.9801
3.8714 2.4869 -2.0053 0.9801
3.3674 3.1347 -2.0050 0.9801
2.7562 3.6823 -2.0046 0.9801
2.4165 3.9130 -2.0043 0.9801
1.2938 4.4112 -2.0035 0.9801
0.8950 4.5083 -2.0031 0.9801
0.4893 4.5694 -2.0028 0.9801
-0.3303 4.5820 -2.0021 0.9802
-1.1388 4.4489 -2.0014 0.9802
-1.5308 4.3288 -2.0010 0.9802
-1.9104 4.1743 -2.0007 0.9802
-2.2748 3.9866 -2.0004 0.9802
-2.6208 3.7672 -2.0000 0.9802
-3.2475 3.2406 -1.9994 0.9802
-3.5231 2.9376 -1.9991 0.9802
-3.7706 2.6113 -1.9989 0.9802
-4.1736 1.8994 -1.9984 0.9802
-1.5933 0.5596 -0.7360 0.9927
-1.5262 -0.0297 -0.6653 0.9934
-1.5076 -0.3027 -0.6702 0.9933
-4.2625 -1.6864 -1.9978 0.9802
-4.0953 -2.0600 -1.9979 0.9802
-3.4045 -3.0714 -1.9983 0.9802
-3.1173 -3.3632 -1.9985 0.9802
-2.8052 -3.6282 -1.9987 0.9802
-2.1165 -4.0700 -1.9993 0.9802
-0.9639 -4.4871 -2.0002 0.9802
1.0694 -4.4672 -2.0019 0.9802
1.4638 -4.3548 -2.0023 0.9802
2.2151 -4.0268 -2.0029 0.9801
2.5658 -3.8138 -2.0033 0.9801
2.8962 -3.5703 -2.0036 0.9801
3.4855 -2.9998 -2.0042 0.9801
3.9641 -2.3334 -2.0047 0.9801
4.1569 -1.9707 -2.0049 0.9801
4.3165 -1.5922 -2.0051 0.9801
4.5314 -0.8001 -2.0054 0.9801
4.5849 -0.3927 -2.0055 0.9801
4.6019 0.0178 -2.0056 0.9801
4.5821 0.4282 -2.0056 0.9801
4.4331 1.2355 -2.0056 0.9801
4.3051 1.6260 -2.0056 0.9801
4.1427 2.0034 -2.0055 0.9801
3.9473 2.3648 -2.0054 0.9801
3.1796 3.3246 -2.0049 0.9801
2.5377 3.8358 -2.0044 0.9801
2.1852 4.0463 -2.0042 0.9801
1.4310 4.3689 -2.0036 0.9801
1.0355 4.4784 -2.0032 0.9801
0.6318 4.5521 -2.0029 0.9801
0.2232 4.5896 -2.0026 0.9801
-1.3948 4.3748 -2.0012 0.9802
-1.7792 4.2322 -2.0008 0.9802
-2.8348 3.6083 -1.9998 0.9802
-3.1448 3.3406 -1.9995 0.9802
-3.9154 2.3879 -1.9987 0.9802
-4.1124 2.0289 -1.9985 0.9802
-1.5007 0.2892 -0.6661 0.9934
-1.5260 0.1548 -0.6685 0.9933
-1.5248 0.0179 -0.6646 0.9934
-1.5289 -0.1188 -0.6683 0.9933
-1.5056 -0.2536 -0.6654 0.9934
-1.5527 -0.4067 -0.6995 0.9930
-3.9690 -2.2943 -1.9980 0.9802
-3.7488 -2.6393 -1.9981 0.9802
-3.4987 -2.9634 -1.9983 0.9802
-2.9171 -3.5386 -1.9987 0.9802
-2.5902 -3.7852 -1.9989 0.9802
-1.8769 -4.1863 -1.9994 0.9802
-1.4963 -4.3377 -1.9997 0.9802
-1.1036 -4.4546 -2.0001 0.9802
-0.2946 -4.5813 -2.0007 0.9802
0.1152 -4.5901 -2.0011 0.9802
0.5242 -4.5624 -2.0014 0.9802
1.3270 -4.3981 -2.0021 0.9802
1.7143 -4.2630 -2.0025 0.9802
2.0880 -4.0938 -2.0028 0.9801
2.7831 -3.6589 -2.0035 0.9801
3.3900 -3.1071 -2.0041 0.9801
4.2645 -1.7263 -2.0050 0.9801
4.5041 -0.9412 -2.0054 0.9801
4.6001 -0.1260 -2.0056 0.9801
4.5932 0.2848 -2.0056 0.9801
4.5495 0.6934 -2.0056 0.9801
4.3538 1.4907 -2.0056 0.9801
4.0194 2.2403 -2.0054 0.9801
3.8033 2.5897 -2.0053 0.9801
3.5568 2.9184 -2.0051 0.9801
3.2820 3.2237 -2.0050 0.9801
2.3106 3.9762 -2.0043 0.9801
1.5669 4.3222 -2.0037 0.9801
1.1750 4.4441 -2.0034 0.9801
0.7738 4.5304 -2.0030 0.9801
0.3666 4.5806 -2.0027 0.9801
-0.0435 4.5943 -2.0023 0.9802
-1.2576 4.4165 -2.0013 0.9802
-2.3807 3.9239 -2.0003 0.9802
-3.0391 3.4374 -1.9996 0.9802
-3.3331 3.1522 -1.9993 0.9802
-3.6004 2.8419 -1.9991 0.9802
-3.8391 2.5092 -1.9988 0.9802
-4.2229 1.7867 -1.9984 0.9802
-1.5832 0.5088 -0.7248 0.9928
-1.5275 0.3442 -0.6824 0.9932
-1.5185 0.2021 -0.6676 0.9933
-1.5290 0.0658 -0.6670 0.9933
-1.5175 -0.2071 -0.6675 0.9933
-1.5301 -0.3501 -0.6841 0.9932
-1.5847 -0.5150 -0.7262 0.9928
-4.2158 -1.8002 -1.9978 0.9802
-4.0387 -2.1691 -1.9979 0.9802
-3.3211 -3.1617 -1.9984 0.9802
-3.0261 -3.4456 -1.9986 0.9802
-2.7071 -3.7023 -1.9988 0.9802
-2.3663 -3.9294 -1.9991 0.9802
-2.0067 -4.1254 -1.9993 0.9802
-1.6310 -4.2886 -1.9996 0.9802
-0.8433 -4.5116 -2.0003 0.9802
-0.0283 -4.5912 -2.0010 0.9802
0.3814 -4.5762 -2.0013 0.9802
0.7882 -4.5247 -2.0017 0.9802
1.1888 -4.4372 -2.0020 0.9802
2.9911 -3.4915 -2.0037 0.9801
3.2910 -3.2113 -2.0040 0.9801
3.5649 -2.9054 -2.0043 0.9801
4.5939 -0.2696 -2.0055 0.9801
4.5689 0.5509 -2.0056 0.9801
4.3983 1.3539 -2.0056 0.9801
4.2599 1.7408 -2.0056 0.9801
3.8824 2.4697 -2.0054 0.9801
3.3813 3.1197 -2.0050 0.9801
3.0892 3.4086 -2.0048 0.9801
2.7726 3.6701 -2.0046 0.9801
2.4339 3.9023 -2.0043 0.9801
2.0758 4.1032 -2.0041 0.9801
1.7013 4.2714 -2.0038 0.9801
1.3133 4.4054 -2.0035 0.9801
0.9150 4.5043 -2.0031 0.9801
0.1001 4.5937 -2.0025 0.9802
-0.7174 4.5367 -2.0018 0.9802
-1.8919 4.1827 -2.0007 0.9802
-2.9304 3.5309 -1.9997 0.9802
-3.2331 3.2550 -1.9994 0.9802
-3.5101 2.9532 -1.9992 0.9802
-1.5505 0.4007 -0.6979 0.9930
-1.5254 -0.0230 -0.6649 0.9934
-1.5254 -0.1598 -0.6684 0.9933
-1.5037 -0.2949 -0.6678 0.9933
-1.5692 -0.4563 -0.7122 0.9929
-4.1044 -2.0418 -1.9979 0.9802
-3.6768 -2.7390 -1.9981 0.9802
-2.8213 -3.6157 -1.9987 0.9802
-2.4878 -3.8534 -1.9990 0.9802
-1.3795 -4.3765 -1.9998 0.9802
-0.9838 -4.4828 -2.0002 0.9802
1.0496 -4.4719 -2.0019 0.9802
1.4445 -4.3612 -2.0022 0.9802
1.8281 -4.2157 -2.0026 0.9801
3.4722 -3.0152 -2.0042 0.9801
3.9537 -2.3509 -2.0047 0.9801
4.1481 -1.9891 -2.0049 0.9801
4.3094 -1.6113 -2.0051 0.9801
4.4363 -1.2207 -2.0053 0.9801
4.5278 -0.8202 -2.0054 0.9801
4.5293 0.8151 -2.0057 0.9801
4.3123 1.6068 -2.0056 0.9801
3.7324 2.6907 -2.0053 0.9801
3.4772 3.0127 -2.0051 0.9801
3.1943 3.3105 -2.0049 0.9801
2.5547 3.8245 -2.0044 0.9801
1.8340 4.2164 -2.0039 0.9801
0.2436 4.5886 -2.0026 0.9801
-0.1666 4.5912 -2.0022 0.9802
-0.5754 4.5572 -2.0019 0.9802
-0.9794 4.4870 -2.0015 0.9802
-1.3754 4.3810 -2.0012 0.9802
-1.7604 4.2401 -2.0008 0.9802
-2.1312 4.0654 -2.0005 0.9802
-2.4849 3.8585 -2.0002 0.9802
-3.4163 3.0615 -1.9992 0.9802
-3.9049 2.4052 -1.9987 0.9802
-4.1034 2.0471 -1.9985 0.9802
-4.2692 1.6728 -1.9983 0.9802
-1.5047 0.2969 -0.6684 0.9933
-1.5252 0.1615 -0.6684 0.9933
-1.5256 0.0247 -0.6650 0.9934
-1.5075 -0.2471 -0.6658 0.9934
-1.5943 -0.5659 -0.7373 0.9926
-4.1661 -1.9126 -1.9978 0.9802
-3.9791 -2.2766 -1.9980 0.9802
-3.2352 -3.2497 -1.9984 0.9802
-2.9328 -3.5256 -1.9986 0.9802
-2.6069 -3.7736 -1.9989 0.9802
-1.5155 -4.3310 -1.9997 0.9802
-0.7221 -4.5328 -2.0004 0.9802
0.0948 -4.5905 -2.0011 0.9802
0.9093 -4.5022 -2.0018 0.9802
1.6953 -4.2705 -2.0025 0.9802
2.0698 -4.1030 -2.0028 0.9801
2.7668 -3.6711 -2.0035 0.9801
4.0837 -2.1176 -2.0048 0.9801
4.2568 -1.7452 -2.0050 0.9801
4.4999 -0.9612 -2.0054 0.9801
4.5995 -0.1464 -2.0056 0.9801
4.5944 0.2645 -2.0056 0.9801
4.2116 1.8544 -2.0055 0.9801
3.8147 2.5729 -2.0053 0.9801
3.2963 3.2092 -2.0050 0.9801
2.6731 3.7430 -2.0045 0.9801
2.3283 3.9659 -2.0043 0.9801
0.7939 4.5270 -2.0030 0.9801
-0.0231 4.5944 -2.0024 0.9802
-0.4327 4.5733 -2.0020 0.9802
-1.2380 4.4221 -2.0013 0.9802
-1.6272 4.2933 -2.0010 0.9802
-2.3633 3.9345 -2.0003 0.9802
-3.3191 3.1670 -1.9993 0.9802
-3.5878 2.8579 -1.9991 0.9802
-4.0375 2.1744 -1.9986 0.9802
-1.5310 0.3521 -0.6846 0.9932
-1.5289 -0.0641 -0.6669 0.9933
-1.5266 -0.3422 -0.6818 0.9932
-4.0482 -2.1512 -1.9979 0.9802
-3.8405 -2.5038 -1.9980 0.9802
-3.3350 -3.1469 -1.9984 0.9802
-3.0414 -3.4322 -1.9986 0.9802
-2.0249 -4.1164 -1.9993 0.9802
-1.2617 -4.4121 -1.9999 0.9802
-0.8633 -4.5078 -2.0003 0.9802
-0.4579 -4.5675 -2.0006 0.9802
1.1691 -4.4424 -2.0020 0.9802
1.5610 -4.3212 -2.0023 0.9802
1.9406 -4.1654 -2.0027 0.9801
-1.3189 -0.3643 -0.6334 0.9940
-1.3322 -0.4996 -0.6586 0.9937
-3.7083 -2.2099 -1.9982 0.9812
-3.4966 -2.5320 -1.9983 0.9812
-3.2571 -2.8340 -1.9985 0.9811
-2.9916 -3.1135 -1.9987 0.9811
-2.7023 -3.3683 -1.9989 0.9811
-2.3913 -3.5963 -1.9991 0.9811
-0.6041 -4.2794 -2.0005 0.9811
0.1659 -4.3200 -2.0012 0.9811
0.5507 -4.2887 -2.0015 0.9811
2.9598 -3.1587 -2.0037 0.9811
3.6918 -2.2633 -2.0045 0.9811
3.8794 -1.9252 -2.0047 0.9811
4.0360 -1.5716 -2.0049 0.9811
4.2517 -0.8296 -2.0052 0.9811
4.3172 -0.0608 -1.9985 0.9811
4.0797 1.4577 -2.0054 0.9811
3.7555 2.1592 -2.0052 0.9811
3.5477 2.4854 -2.0051 0.9811
3.3116 2.7917 -2.0049 0.9811
2.7624 3.3351 -2.0045 0.9811
2.1253 3.7719 -2.0041 0.9811
1.7802 3.9460 -2.0038 0.9811
0.6717 4.2746 -2.0029 0.9811
0.2877 4.3167 -2.0026 0.9811
-0.0984 4.3245 -2.0023 0.9811
-0.4837 4.2978 -2.0019 0.9811
-0.8650 4.2368 -2.0016 0.9811
-1.2392 4.1421 -2.0013 0.9811
-1.6035 4.0144 -2.0009 0.9811
-1.9548 3.8547 -2.0006 0.9811
-2.6078 3.4450 -2.0000 0.9811
-2.9043 3.1982 -1.9997 0.9811
-3.1775 2.9260 -1.9994 0.9811
-3.4254 2.6306 -1.9992 0.9811
-3.6459 2.3143 -1.9989 0.9811
-3.8374 1.9797 -1.9987 0.9811
-1.3276 0.5410 -0.6636 0.9937
-1.3039 0.2756 -0.6169 0.9941
-1.3371 0.0397 -0.6192 0.9941
-1.3385 -0.0799 -0.6207 0.9941
-1.3256 -0.1989 -0.6205 0.9941
-1.3068 -0.3174 -0.6225 0.9941
-3.5739 -2.4215 -1.9983 0.9812
-3.0873 -3.0184 -1.9986 0.9811
-2.5024 -3.5197 -1.9990 0.9811
-2.1788 -3.7293 -1.9993 0.9811
-1.4819 -4.0582 -1.9998 0.9811
-1.1142 -4.1748 -2.0001 0.9811
-0.3548 -4.3077 -2.0007 0.9811
0.0309 -4.3229 -2.0010 0.9811
0.4164 -4.3036 -2.0014 0.9811
1.5417 -4.0418 -2.0024 0.9811
1.8963 -3.8888 -2.0027 0.9811
2.2360 -3.7048 -2.0030 0.9811
2.5579 -3.4911 -2.0033 0.9811
3.1384 -2.9819 -2.0039 0.9811
3.3923 -2.6905 -2.0041 0.9811
3.6192 -2.3775 -2.0044 0.9811
4.1207 -1.3348 -2.0050 0.9811
4.2236 -0.9620 -2.0051 0.9811
4.2928 -0.5815 -2.0052 0.9811
4.3144 -0.1957 -1.9991 0.9811
4.2940 0.5758 -2.0054 0.9811
4.2255 0.9565 -2.0054 0.9811
3.8212 2.0409 -2.0052 0.9811
3.6237 2.3734 -2.0051 0.9811
2.8653 3.2473 -2.0046 0.9811
2.5640 3.4895 -2.0044 0.9811
2.2423 3.7039 -2.0042 0.9811
1.1812 4.1636 -2.0033 0.9811
0.8050 4.2517 -2.0030 0.9811
0.0367 4.3257 -2.0024 0.9811
-0.3492 4.3110 -2.0020 0.9811
-0.7322 4.2620 -2.0017 0.9811
-2.4990 3.5250 -2.0001 0.9811
-3.0847 3.0240 -1.9995 0.9811
-3.3417 2.7364 -1.9993 0.9811
-3.7738 2.0987 -1.9988 0.9811
-1.3188 0.5861 -0.6680 0.9937
-1.3336 0.4552 -0.6523 0.9938
-1.3074 0.3193 -0.6229 0.9941
-1.3370 -0.0379 -0.6191 0.9941
-1.3045 -0.2739 -0.6170 0.9941
-1.3279 -0.5390 -0.6634 0.9937
-3.8389 -1.9739 -1.9981 0.9812
-3.4276 -2.6249 -1.9984 0.9812
-3.1800 -2.9204 -1.9985 0.9811
-1.9588 -3.8498 -1.9994 0.9811
-1.6079 -4.0097 -1.9997 0.9811
-1.2440 -4.1377 -2.0000 0.9811
-0.4892 -4.2943 -2.0006 0.9811
-0.1042 -4.3215 -2.0009 0.9811
0.6655 -4.2726 -2.0016 0.9811
1.7738 -3.9460 -2.0026 0.9811
2.1190 -3.7726 -2.0029 0.9811
2.4474 -3.5691 -2.0032 0.9811
2.7565 -3.3371 -2.0035 0.9811
3.0435 -3.0784 -2.0038 0.9811
3.3064 -2.7950 -2.0041 0.9811
3.7513 -2.1636 -2.0045 0.9811
3.9298 -1.8205 -2.0047 0.9811
4.1914 -1.0935 -2.0051 0.9811
4.2725 -0.7154 -2.0052 0.9811
4.3195 -0.3314 -2.0053 0.9811
4.3099 0.4413 -2.0054 0.9811
4.1629 1.2001 -2.0054 0.9811
4.0391 1.5666 -2.0054 0.9811
3.4797 2.5796 -2.0050 0.9811
3.2355 2.8795 -2.0049 0.9811
2.3570 3.6322 -2.0042 0.9811
1.6737 3.9921 -2.0037 0.9811
1.3108 4.1249 -2.0034 0.9811
0.5568 4.2908 -2.0028 0.9811
0.1719 4.3227 -2.0025 0.9811
-0.2144 4.3201 -2.0022 0.9811
-0.5987 4.2830 -2.0018 0.9811
-1.3498 4.1071 -2.0012 0.9811
-1.7104 3.9697 -2.0008 0.9811
-2.0574 3.8007 -2.0005 0.9811
-1.3194 0.3663 -0.6338 0.9940
-1.3149 0.2413 -0.6188 0.9941
-1.3377 -0.1159 -0.6215 0.9941
-1.3170 -0.2339 -0.6192 0.9941
-1.3326 -0.4931 -0.6577 0.9938
-3.8987 -1.8529 -1.9981 0.9812
-3.5078 -2.5165 -1.9983 0.9812
-3.2696 -2.8195 -1.9985 0.9811
-2.7171 -3.3563 -1.9989 0.9811
-1.7323 -3.9573 -1.9996 0.9811
-1.3726 -4.0967 -1.9999 0.9811
-0.6231 -4.2767 -2.0005 0.9811
-0.2392 -4.3159 -2.0008 0.9811
0.1468 -4.3207 -2.0011 0.9811
0.9124 -4.2273 -2.0018 0.9811
1.2861 -4.1297 -2.0021 0.9811
2.6507 -3.4214 -2.0034 0.9811
3.6817 -2.2796 -2.0045 0.9811
3.8708 -1.9424 -2.0047 0.9811
4.0290 -1.5895 -2.0049 0.9811
4.2480 -0.8485 -2.0052 0.9811
4.3069 -0.4662 -2.0053 0.9811
4.1983 1.0694 -2.0054 0.9811
4.0861 1.4396 -2.0054 0.9811
3.9413 1.7983 -2.0053 0.9811
3.7650 2.1426 -2.0052 0.9811
3.3240 2.7770 -2.0049 0.9811
3.0628 3.0622 -2.0048 0.9811
2.7771 3.3228 -2.0045 0.9811
2.1421 3.7625 -2.0041 0.9811
1.7977 3.9380 -2.0038 0.9811
1.4391 4.0821 -2.0035 0.9811
0.6906 4.2716 -2.0029 0.9811
-0.8462 4.2406 -2.0016 0.9811
-1.2208 4.1475 -2.0013 0.9811
-1.5857 4.0215 -2.0010 0.9811
-2.2742 3.6746 -2.0003 0.9811
-2.5925 3.4565 -2.0000 0.9811
-2.8901 3.2111 -1.9997 0.9811
-3.4137 2.6458 -1.9992 0.9811
-3.6357 2.3305 -1.9990 0.9811
-1.3266 0.5475 -0.6643 0.9937
-1.3284 0.4140 -0.6441 0.9939
-1.3385 -0.0739 -0.6205 0.9941
-1.3048 -0.3108 -0.6209 0.9941
-1.3327 -0.4463 -0.6506 0.9938
-3.1007 -3.0047 -1.9986 0.9811
