ply
format ascii 1.0
element vertex 1565
property float32 x
property float32 y
property float32 z
property float32 I
end_header
-2.4691 11.6493 1.0081 0.9533
-3.5713 11.6201 1.0291 0.9524
-10.7857 11.7004 1.3471 0.9381
-12.9126 11.7134 1.4758 0.9324
3.2014 11.6144 1.0199 0.9528
2.1104 11.6211 0.9999 0.9537
1.0532 11.6276 0.9883 0.9542
0.0118 11.6318 0.9847 0.9544
-1.0305 11.6404 0.9892 0.9542
-2.0906 11.6469 1.0017 0.9536
-4.3391 11.6608 1.0532 0.9513
-10.1245 11.6963 1.3095 0.9398
-12.1234 11.7086 1.4268 0.9346
7.3978 11.5886 1.1639 0.9463
6.0205 11.5971 1.1061 0.9489
2.4874 11.6188 1.0059 0.9534
1.4205 11.6254 0.9914 0.9541
0.3745 11.6007 0.9825 0.9545
-0.6646 11.6381 0.9868 0.9543
-2.7978 11.6513 1.0144 0.9530
-3.9279 11.6582 1.0414 0.9518
-7.8716 11.6825 1.1925 0.9450
-13.6347 11.7179 1.5219 0.9304
7.9160 11.5854 1.1878 0.9452
5.1921 11.6022 1.0760 0.9503
2.8693 11.6165 1.0129 0.9531
0.7397 11.6291 0.9864 0.9543
-2.4149 11.6489 1.0071 0.9534
-4.6995 11.6630 1.0644 0.9508
-5.9629 11.6707 1.1094 0.9487
-7.3331 11.6533 1.1655 0.9462
-12.7970 11.7127 1.4686 0.9327
-15.3681 11.7285 1.6365 0.9253
6.9599 11.5755 1.1434 0.9472
2.1638 11.6208 1.0006 0.9537
1.1054 11.6273 0.9887 0.9542
-4.2800 11.6604 1.0515 0.9514
-10.0333 11.6958 1.3045 0.9400
-12.0152 11.7079 1.4202 0.9349
-14.4038 11.7226 1.5721 0.9282
4.8241 11.6044 1.0638 0.9508
3.6513 11.6116 1.0304 0.9523
-3.8702 11.6579 1.0398 0.9519
-6.3643 11.6732 1.1255 0.9480
-13.5118 11.7171 1.5140 0.9307
7.9915 11.5850 1.1914 0.9451
6.5544 11.5938 1.1274 0.9479
4.0533 11.6092 1.0409 0.9518
2.9241 11.6161 1.0140 0.9531
1.8434 11.6228 0.9962 0.9539
0.7917 11.6291 0.9867 0.9543
-1.2935 11.6420 0.9916 0.9541
-2.3608 11.6486 1.0061 0.9534
-5.8974 11.6703 1.1069 0.9489
-7.2764 11.6781 1.1648 0.9463
-6.7050 8.8839 0.9422 0.9563
-15.1889 11.6991 1.6230 0.9259
9.2845 12.5982 1.3248 0.9391
5.6960 11.5991 1.0939 0.9494
4.4555 11.5845 1.0507 0.9514
3.3126 11.6137 1.0223 0.9527
2.2173 11.6205 1.0015 0.9536
1.1576 11.6270 0.9891 0.9542
-5.4452 11.6675 1.0900 0.9496
-8.2589 11.6848 1.2113 0.9442
-9.9429 11.6952 1.2995 0.9402
-14.2727 11.7218 1.5635 0.9285
7.5431 11.5877 1.1705 0.9460
6.1517 11.5963 1.1112 0.9487
3.7080 11.6113 1.0318 0.9522
1.5255 11.6247 0.9925 0.9540
-1.6107 11.6440 0.9951 0.9539
-3.8125 11.6575 1.0383 0.9520
-5.0062 11.6649 1.0746 0.9503
-7.7207 11.6815 1.1853 0.9453
-11.1821 11.7028 1.3702 0.9371
-16.1085 11.7331 1.6870 0.9231
8.0674 11.5845 1.1950 0.9449
6.6224 11.5934 1.1302 0.9478
0.8437 11.6289 0.9870 0.9543
-4.5790 11.6622 1.0606 0.9509
-4.3536 8.7114 0.8244 0.9617
-7.2047 11.6784 1.1616 0.9464
-6.6836 8.9378 0.9448 0.9562
-10.4987 11.6986 1.3306 0.9388
-12.5691 11.7113 1.4543 0.9334
-15.0857 11.7268 1.6175 0.9262
5.7601 11.5987 1.0963 0.9493
4.5233 11.6063 1.0545 0.9512
3.3685 11.6134 1.0236 0.9526
2.2709 11.6201 1.0023 0.9536
1.2098 11.6267 0.9895 0.9542
0.1671 11.6309 0.9847 0.9544
-0.8739 11.6395 0.9881 0.9542
-1.9304 11.6460 0.9993 0.9537
-4.1624 11.6597 1.0480 0.9515
-14.1429 11.7210 1.5550 0.9289
6.2177 11.5959 1.1138 0.9486
2.6498 11.6178 1.0087 0.9533
-0.5087 11.6364 0.9860 0.9543
-1.5579 11.6437 0.9945 0.9539
-2.6336 11.6503 1.0111 0.9532
-4.9447 11.6645 1.0725 0.9504
-6.2298 11.6724 1.1200 0.9483
-7.6459 11.6811 1.1818 0.9455
-9.2409 11.6909 1.2615 0.9419
-15.9575 11.7322 1.6767 0.9236
9.6358 12.5962 0.9834 0.9384
5.9553 11.5975 0.8084 0.9491
4.7037 11.6052 0.7765 0.9511
2.4334 11.6191 0.7361 0.9535
0.3236 11.6288 0.7214 0.9544
-0.7155 11.6221 0.7221 0.9544
-1.7648 11.6140 0.7285 0.9540
-2.8453 11.6212 0.7419 0.9532
-6.5002 11.6740 0.8286 0.9479
-7.9435 11.6767 0.8757 0.9450
-13.7590 11.7187 1.1207 0.9301
5.1304 11.6026 0.7867 0.9504
3.9380 11.6099 0.7602 0.9521
0.6879 11.6299 0.7224 0.9544
-0.3514 11.6198 0.7209 0.9545
-3.5713 11.6201 0.7538 0.9524
-10.7856 11.7003 0.9868 0.9382
-15.5120 11.7294 1.2059 0.9250
1.0532 11.6276 0.7240 0.9543
0.0118 11.6175 0.7204 0.9545
-2.0849 11.6151 0.7318 0.9538
-3.1785 11.6239 0.7473 0.9529
-4.3391 11.6608 0.7715 0.9514
-6.9180 11.6766 0.8416 0.9471
-10.1166 11.6872 0.9585 0.9399
-12.1234 11.7086 1.0451 0.9347
-14.5365 11.7234 1.1580 0.9279
6.0205 11.5971 0.8103 0.9490
4.7638 11.6048 0.7779 0.9510
3.5947 11.6120 0.7538 0.9525
0.3745 11.6007 0.7197 0.9545
-6.4321 11.6736 0.8265 0.9480
-9.4948 11.6878 0.9338 0.9414
-13.6347 11.7179 1.1148 0.9305
3.9956 11.6095 0.7614 0.9520
1.7904 11.6231 0.7293 0.9540
-0.2997 11.6194 0.7208 0.9545
-1.3441 11.6262 0.7257 0.9542
-2.4084 11.6176 0.7357 0.9536
-7.3331 11.6533 0.8538 0.9463
-6.7622 8.8771 0.6920 0.9563
-10.6851 11.6952 0.9823 0.9385
-12.7970 11.7127 1.0758 0.9328
-15.3681 11.7285 1.1988 0.9254
9.1988 12.5989 0.9673 0.9394
0.0635 11.6172 0.7204 0.9545
-4.2800 11.6604 0.7702 0.9514
-10.0284 11.6901 0.9551 0.9401
9.7498 12.5129 0.9837 0.9384
7.8176 12.1270 0.8947 0.9438
4.8241 11.6044 0.7793 0.9509
3.6513 11.6116 0.7548 0.9524
2.5415 11.6185 0.7375 0.9535
-2.7357 11.6203 0.7403 0.9533
-3.8702 11.6579 0.7617 0.9520
-6.3643 11.6732 0.8245 0.9481
-7.7916 11.6755 0.8704 0.9453
8.0923 11.7311 0.8837 0.9445
4.0533 11.6092 0.7625 0.9519
1.8434 11.6228 0.7297 0.9539
-2.3545 11.6172 0.7350 0.9536
-7.2764 11.6781 0.8532 0.9463
-12.6825 11.7120 1.0705 0.9332
-15.1889 11.6991 1.1889 0.9260
4.4555 11.5845 0.7697 0.9515
1.1576 11.6270 0.7246 0.9543
0.1152 11.6191 0.7205 0.9545
-0.9248 11.6234 0.7231 0.9543
-1.9782 11.6143 0.7306 0.9539
-3.0674 11.6230 0.7454 0.9530
-6.7779 11.6758 0.8372 0.9473
-8.2550 11.6794 0.8869 0.9443
-11.9081 11.7073 1.0355 0.9353
-14.2727 11.7218 1.1453 0.9287
7.8567 12.0695 0.8930 0.9439
6.1517 11.5963 0.8140 0.9488
3.7080 11.6113 0.7558 0.9523
1.5255 11.6247 0.7270 0.9541
-0.5599 11.6211 0.7215 0.9544
-1.6076 11.6214 0.7275 0.9541
-2.6811 11.6198 0.7395 0.9533
-3.8125 11.6575 0.7606 0.9520
-5.0062 11.6649 0.7871 0.9504
-6.2969 11.6728 0.8224 0.9482
-7.7162 11.6748 0.8678 0.9455
-11.1821 11.7028 1.0037 0.9372
-13.3901 11.7164 1.1033 0.9312
-16.1085 11.7331 1.2358 0.9232
6.6224 11.5934 0.8279 0.9479
5.3161 11.6014 0.7913 0.9501
4.1112 11.6088 0.7637 0.9518
0.8437 11.6289 0.7230 0.9543
-0.1962 11.6188 0.7206 0.9545
-4.5790 11.6622 0.7769 0.9510
-10.4868 11.6853 0.9736 0.9390
9.3710 12.5978 0.9736 0.9390
5.7601 11.5987 0.8030 0.9494
4.5234 11.6063 0.7724 0.9513
2.2709 11.6201 0.7342 0.9537
1.2098 11.6267 0.7249 0.9542
0.1670 11.6215 0.7207 0.9545
-1.9251 11.6139 0.7300 0.9539
-6.7083 11.6753 0.8350 0.9475
-8.1770 11.6787 0.8841 0.9445
-9.8508 11.6920 0.9481 0.9406
7.8957 12.0121 0.8914 0.9440
6.2177 11.5959 0.8159 0.9486
4.9453 11.6037 0.7822 0.9507
3.7650 11.6109 0.7569 0.9523
2.6498 11.6178 0.7389 0.9534
0.5301 11.6127 0.7209 0.9545
-1.5552 11.6238 0.7272 0.9541
-2.6266 11.6194 0.7387 0.9534
-4.9447 11.6645 0.7856 0.9505
-9.2386 11.6879 0.9238 0.9420
7.7408 12.2457 0.5712 0.9437
5.9553 11.5975 0.5141 0.9491
4.7037 11.6052 0.4938 0.9511
3.5383 11.6123 0.4787 0.9526
2.4334 11.6191 0.4681 0.9536
-0.7145 11.6045 0.4584 0.9545
-1.7621 11.5963 0.4625 0.9541
-2.8364 11.5845 0.4703 0.9534
-3.9859 11.6586 0.4858 0.9519
-5.1921 11.6660 0.5035 0.9502
-7.9320 11.6599 0.5561 0.9451
-9.5568 11.6579 0.5944 0.9414
3.9380 11.6099 0.4834 0.9521
2.8146 11.6168 0.4713 0.9533
1.7376 11.6234 0.4634 0.9540
0.6879 11.6299 0.4594 0.9544
-0.3509 11.6022 0.4577 0.9546
-1.3945 11.6088 0.4610 0.9543
-2.4548 11.5817 0.4668 0.9537
-3.5713 11.6201 0.4793 0.9525
-4.7601 11.6633 0.4967 0.9508
-8.9668 11.6633 0.5801 0.9428
-10.7429 11.6539 0.6250 0.9385
-12.9127 11.7134 0.6874 0.9326
6.8996 11.5917 0.5319 0.9474
5.5689 11.5999 0.5074 0.9498
3.2014 11.6144 0.4750 0.9529
2.1104 11.6211 0.4657 0.9538
1.0532 11.6276 0.4604 0.9543
0.0118 11.6142 0.4580 0.9546
-4.3391 11.6608 0.4906 0.9514
-5.5725 11.6683 0.5099 0.9496
-6.9180 11.6766 0.5352 0.9471
-8.3971 11.6589 0.5665 0.9441
-10.0822 11.6475 0.6074 0.9402
-12.1234 11.7086 0.6646 0.9348
6.0205 11.5971 0.5152 0.9490
4.7638 11.6048 0.4946 0.9510
2.4874 11.6188 0.4685 0.9535
1.4205 11.6254 0.4618 0.9542
0.3745 11.6007 0.4577 0.9546
-2.7817 11.5841 0.4698 0.9534
-6.4321 11.6736 0.5256 0.9480
-7.8587 11.6633 0.5546 0.9453
-13.6347 11.7179 0.7089 0.9306
5.1921 11.6022 0.5012 0.9504
3.9956 11.6095 0.4841 0.9520
2.8693 11.6165 0.4718 0.9532
1.7904 11.6231 0.4637 0.9540
0.7398 11.6296 0.4595 0.9544
-0.2992 11.6019 0.4576 0.9546
-2.4009 11.5813 0.4664 0.9538
-5.9629 11.6707 0.5168 0.9489
-6.7602 8.8746 0.4399 0.9563
-12.7970 11.7127 0.6840 0.9329
-15.3681 11.7285 0.7623 0.9255
6.9599 11.5755 0.5326 0.9474
3.2569 11.6141 0.4756 0.9529
2.1638 11.6208 0.4661 0.9538
1.1054 11.6273 0.4605 0.9543
-0.9754 11.6061 0.4593 0.9544
-2.0261 11.5839 0.4637 0.9540
-3.1130 11.5866 0.4731 0.9531
-4.2800 11.6604 0.4898 0.9515
-5.5087 11.6679 0.5088 0.9497
-6.8477 11.6762 0.5337 0.9473
-9.9912 11.6466 0.6051 0.9404
-14.4038 11.7226 0.7323 0.9284
4.8240 11.6044 0.4955 0.9509
1.4730 11.6250 0.4621 0.9542
-1.6574 11.6013 0.4621 0.9542
-2.7271 11.5837 0.4692 0.9535
-5.0679 11.6652 0.5015 0.9504
-6.3643 11.6732 0.5243 0.9482
-13.5118 11.7171 0.7052 0.9309
6.5544 11.5938 0.5252 0.9481
-0.2476 11.6020 0.4576 0.9546
-4.6391 11.6626 0.4949 0.9510
-6.7036 8.8819 0.4388 0.9564
-10.5509 11.6521 0.6198 0.9390
-12.6825 11.7120 0.6807 0.9332
-15.1889 11.6991 0.7560 0.9261
-7.7462 -13.2154 0.6040 0.9405
5.6960 11.5991 0.5095 0.9496
3.3126 11.6137 0.4762 0.9528
2.2173 11.6205 0.4665 0.9537
0.1152 11.6191 0.4582 0.9546
-0.9234 11.6058 0.4591 0.9545
-1.9735 11.5864 0.4634 0.9540
-8.2397 11.6577 0.5629 0.9445
-9.9008 11.6458 0.6027 0.9406
-11.9081 11.7073 0.6585 0.9353
-14.2727 11.7218 0.7283 0.9287
4.8846 11.6041 0.4964 0.9508
3.7080 11.6113 0.4806 0.9524
2.5956 11.6181 0.4694 0.9535
-0.5590 11.6035 0.4581 0.9546
-6.2969 11.6728 0.5230 0.9483
-11.1391 11.6578 0.6358 0.9375
8.1391 11.6874 0.5616 0.9446
6.6224 11.5934 0.5265 0.9480
2.9790 11.6158 0.4728 0.9531
-0.1960 11.6045 0.4576 0.9546
-1.2374 11.6078 0.4603 0.9543
-7.2047 11.6784 0.5411 0.9466
-6.6804 8.9336 0.4399 0.9563
-15.0857 11.7268 0.7534 0.9264
-7.7938 -13.1622 0.6032 0.9406
7.6178 12.4181 0.5745 0.9433
2.2709 11.6201 0.4669 0.9537
1.2098 11.6267 0.4609 0.9543
-0.8714 11.6055 0.4589 0.9545
-1.9209 11.5888 0.4632 0.9541
-3.0025 11.5858 0.4719 0.9532
-4.1624 11.6597 0.4882 0.9516
-5.3819 11.6672 0.5066 0.9499
-8.1618 11.6571 0.5611 0.9446
-9.8123 11.6462 0.6005 0.9409
-11.8020 11.7066 0.6555 0.9356
7.9013 12.0207 0.5672 0.9440
4.9453 11.6037 0.4974 0.9508
3.7650 11.6109 0.4813 0.9523
1.5781 11.6244 0.4626 0.9541
-3.7552 11.6572 0.4829 0.9522
-6.2298 11.6724 0.5217 0.9484
-7.6410 11.6735 0.5501 0.9457
-11.0393 11.6568 0.6330 0.9378
-15.9575 11.7322 0.7810 0.9238
9.0806 12.9163 0.6226 0.9388
7.7408 12.2457 0.2447 0.9437
5.9553 11.5975 0.2202 0.9492
4.7037 11.6052 0.2115 0.9511
-0.7134 11.5870 0.1961 0.9546
-1.7595 11.5788 0.1978 0.9542
-2.8275 11.5482 0.2008 0.9535
-5.1921 11.6660 0.2157 0.9502
-6.5002 11.6740 0.2257 0.9479
-7.9320 11.6599 0.2382 0.9451
-13.7590 11.7187 0.3053 0.9302
8.0213 11.8525 0.2417 0.9444
3.9380 11.6099 0.2071 0.9521
2.8146 11.6168 0.2019 0.9533
1.7376 11.6234 0.1985 0.9541
-0.3508 11.5972 0.1960 0.9546
-3.5713 11.6201 0.2053 0.9525
-6.0288 11.6711 0.2219 0.9488
-8.9497 11.6411 0.2480 0.9429
-12.9127 11.7134 0.2945 0.9326
9.3416 12.9147 0.2692 0.9382
6.8996 11.5917 0.2279 0.9475
3.2014 11.6144 0.2035 0.9529
1.0532 11.6276 0.1972 0.9544
-2.0757 11.5638 0.1985 0.9541
-3.1584 11.5504 0.2023 0.9532
-5.5725 11.6683 0.2184 0.9496
-8.3826 11.6387 0.2423 0.9442
-10.0515 11.6120 0.2594 0.9404
-14.5365 11.7234 0.3155 0.9280
7.7811 12.1892 0.2443 0.9438
6.0205 11.5971 0.2207 0.9491
2.4874 11.6188 0.2007 0.9536
-2.7730 11.5478 0.2006 0.9536
-3.9280 11.6582 0.2078 0.9520
-5.1299 11.6656 0.2153 0.9503
-6.4321 11.6736 0.2251 0.9481
-13.6347 11.7179 0.3037 0.9306
8.0607 11.7972 0.2414 0.9444
3.9956 11.6095 0.2074 0.9521
2.8693 11.6165 0.2021 0.9533
0.7398 11.6296 0.1968 0.9545
-1.3400 11.5909 0.1971 0.9544
-5.9629 11.6707 0.2214 0.9489
-7.3331 11.6533 0.2326 0.9464
-12.7970 11.7127 0.2930 0.9330
5.6323 11.5995 0.2178 0.9497
3.2569 11.6141 0.2038 0.9529
2.1638 11.6208 0.1997 0.9538
-3.1032 11.5500 0.2020 0.9533
-5.5087 11.6679 0.2180 0.9497
-9.9650 11.6161 0.2585 0.9406
-14.4038 11.7226 0.3137 0.9284
7.8213 12.1328 0.2438 0.9439
6.0859 11.5967 0.2212 0.9490
4.8240 11.6044 0.2123 0.9510
3.6513 11.6116 0.2056 0.9525
1.4730 11.6250 0.1979 0.9542
-0.6099 11.5863 0.1960 0.9546
-2.7186 11.5474 0.2004 0.9536
-11.1918 11.6092 0.2724 0.9375
6.5544 11.5938 0.2250 0.9481
2.9241 11.6161 0.2023 0.9532
1.8434 11.6228 0.1988 0.9540
0.7917 11.6292 0.1969 0.9544
-1.2878 11.5906 0.1970 0.9544
-5.8974 11.6703 0.2209 0.9490
-7.2764 11.6781 0.2324 0.9464
-10.5073 11.6039 0.2644 0.9393
-12.6825 11.7120 0.2916 0.9333
-15.1889 11.6991 0.3239 0.9262
-7.7461 -13.2153 0.2588 0.9406
7.5768 12.4756 0.2466 0.9433
4.4555 11.5845 0.2097 0.9516
1.1576 11.6270 0.1974 0.9543
0.1152 11.6191 0.1963 0.9546
-1.9705 11.5688 0.1982 0.9541
-4.2211 11.6600 0.2095 0.9516
-6.7779 11.6758 0.2280 0.9474
-9.8790 11.6201 0.2576 0.9408
7.8614 12.0766 0.2434 0.9440
3.7080 11.6113 0.2059 0.9524
2.5956 11.6181 0.2011 0.9535
1.5255 11.6247 0.1980 0.9542
-0.5583 11.5875 0.1960 0.9547
-3.8125 11.6575 0.2072 0.9521
-6.2969 11.6728 0.2240 0.9483
-7.7132 11.6701 0.2363 0.9456
-11.0919 11.6084 0.2712 0.9378
-13.3901 11.7164 0.3005 0.9313
-16.1085 11.7331 0.3366 0.9234
6.6224 11.5934 0.2255 0.9480
5.3161 11.6014 0.2156 0.9502
2.9790 11.6158 0.2026 0.9532
1.8963 11.6224 0.1989 0.9540
-0.1960 11.6045 0.1960 0.9546
-4.5790 11.6622 0.2116 0.9511
-4.3535 8.7113 0.1645 0.9618
-15.0857 11.7268 0.3228 0.9264
-7.7938 -13.1621 0.2584 0.9406
7.6178 12.4181 0.2461 0.9434
4.5234 11.6063 0.2104 0.9514
3.3685 11.6134 0.2043 0.9528
1.2098 11.6267 0.1975 0.9543
-1.9180 11.5713 0.1981 0.9542
-5.3819 11.6672 0.2170 0.9499
-8.1564 11.6493 0.2402 0.9447
-9.7936 11.6241 0.2568 0.9410
-11.8020 11.7066 0.2808 0.9357
7.9013 12.0207 0.2430 0.9441
4.9453 11.6037 0.2131 0.9508
3.7650 11.6109 0.2062 0.9523
2.6498 11.6178 0.2013 0.9534
-0.5067 11.5899 0.1960 0.9547
-2.6102 11.5467 0.2000 0.9537
-6.2298 11.6724 0.2235 0.9484
-7.6410 11.6735 0.2357 0.9457
-9.2029 11.6428 0.2507 0.9424
9.1069 12.9538 0.2675 0.9386
5.9553 11.5975 -0.0734 0.9492
1.3681 11.6257 -0.0659 0.9543
0.3236 11.6288 -0.0655 0.9545
-1.7568 11.5613 -0.0658 0.9543
-5.1921 11.6660 -0.0719 0.9502
-13.7590 11.7187 -0.1018 0.9303
6.4194 11.5946 -0.0746 0.9484
2.8146 11.6168 -0.0673 0.9533
1.7376 11.6234 -0.0662 0.9541
0.6879 11.6299 -0.0656 0.9545
-0.3508 11.5972 -0.0653 0.9546
-1.3902 11.5737 -0.0656 0.9544
-2.4436 11.5287 -0.0664 0.9540
-6.0288 11.6711 -0.0740 0.9488
-12.9127 11.7134 -0.0982 0.9326
-15.5120 11.7294 -0.1095 0.9252
3.2014 11.6144 -0.0678 0.9530
2.1104 11.6211 -0.0665 0.9539
1.0532 11.6276 -0.0657 0.9544
0.0118 11.6142 -0.0654 0.9546
-3.1485 11.5140 -0.0672 0.9534
-5.5725 11.6683 -0.0728 0.9496
-6.9180 11.6766 -0.0764 0.9472
-8.3826 11.6387 -0.0808 0.9442
-12.1234 11.7086 -0.0949 0.9348
-14.5365 11.7234 -0.1051 0.9280
6.0205 11.5971 -0.0736 0.9491
3.5947 11.6120 -0.0684 0.9525
2.4874 11.6188 -0.0669 0.9536
1.4205 11.6254 -0.0659 0.9542
-0.6614 11.5826 -0.0653 0.9547
-1.7046 11.5637 -0.0658 0.9543
-3.9280 11.6582 -0.0693 0.9520
-13.6347 11.7179 -0.1012 0.9306
8.0607 11.7972 -0.0804 0.9444
3.9956 11.6095 -0.0691 0.9521
1.7904 11.6231 -0.0662 0.9540
0.7398 11.6296 -0.0656 0.9545
-0.2992 11.5996 -0.0653 0.9546
-1.3380 11.5733 -0.0656 0.9545
-5.9629 11.6707 -0.0738 0.9489
-7.3331 11.6533 -0.0775 0.9464
-6.7580 8.8717 -0.0628 0.9564
-12.7970 11.7127 -0.0977 0.9330
5.6323 11.5995 -0.0726 0.9497
3.2569 11.6141 -0.0679 0.9529
1.1054 11.6273 -0.0658 0.9544
0.0635 11.6166 -0.0654 0.9546
-6.8477 11.6762 -0.0762 0.9473
-8.3067 11.6423 -0.0805 0.9444
-9.9460 11.5939 -0.0860 0.9407
-12.0152 11.7079 -0.0945 0.9351
7.8213 12.1328 -0.0813 0.9439
6.0859 11.5967 -0.0737 0.9490
4.8240 11.6044 -0.0708 0.9510
-0.6098 11.5850 -0.0653 0.9547
-1.6524 11.5662 -0.0658 0.9543
-2.7112 11.5160 -0.0666 0.9538
-5.0679 11.6652 -0.0716 0.9504
-7.7858 11.6667 -0.0790 0.9454
-9.3552 11.6214 -0.0840 0.9421
-11.1445 11.5600 -0.0904 0.9378
-13.5118 11.7171 -0.1007 0.9310
6.5544 11.5938 -0.0750 0.9481
5.2540 11.6018 -0.0717 0.9503
2.9241 11.6161 -0.0674 0.9532
0.7917 11.6292 -0.0656 0.9544
-2.3376 11.5337 -0.0663 0.9540
-10.4754 11.5687 -0.0879 0.9395
-12.6825 11.7120 -0.0972 0.9333
-15.1889 11.6991 -0.1079 0.9262
-7.7460 -13.2152 -0.0862 0.9406
5.6960 11.5991 -0.0728 0.9496
3.3126 11.6137 -0.0680 0.9528
2.2173 11.6205 -0.0666 0.9538
1.1576 11.6270 -0.0658 0.9543
-0.9206 11.5708 -0.0654 0.9546
-1.9675 11.5513 -0.0660 0.9542
-3.0385 11.5134 -0.0670 0.9535
-4.2211 11.6600 -0.0698 0.9516
-5.4452 11.6675 -0.0725 0.9498
-6.7779 11.6758 -0.0760 0.9474
-9.8603 11.5980 -0.0857 0.9409
7.8614 12.0766 -0.0811 0.9440
4.8846 11.6041 -0.0709 0.9509
1.5255 11.6247 -0.0660 0.9542
-1.6003 11.5687 -0.0658 0.9544
-2.6578 11.5185 -0.0666 0.9538
-6.2969 11.6728 -0.0747 0.9483
-9.2700 11.6209 -0.0837 0.9423
-11.0451 11.5595 -0.0900 0.9380
-13.3901 11.7164 -0.1002 0.9313
8.1391 11.6874 -0.0802 0.9446
-0.1960 11.6045 -0.0653 0.9546
-1.2337 11.5727 -0.0655 0.9545
-4.3535 8.7112 -0.0548 0.9618
-7.2047 11.6784 -0.0773 0.9466
-10.3859 11.5730 -0.0875 0.9397
-12.5691 11.7113 -0.0967 0.9336
-15.0857 11.7268 -0.1076 0.9264
7.6178 12.4181 -0.0820 0.9434
4.5233 11.6063 -0.0701 0.9514
3.3685 11.6134 -0.0681 0.9528
1.2098 11.6267 -0.0658 0.9543
-0.8689 11.5729 -0.0653 0.9546
-1.9151 11.5538 -0.0659 0.9542
-2.9837 11.5131 -0.0670 0.9535
-4.1624 11.6597 -0.0697 0.9517
-6.7083 11.6753 -0.0758 0.9476
-8.1564 11.6493 -0.0801 0.9447
-9.7751 11.6021 -0.0854 0.9411
-14.1429 11.7210 -0.1034 0.9292
7.9013 12.0207 -0.0810 0.9441
6.2177 11.5959 -0.0741 0.9487
4.9453 11.6037 -0.0710 0.9508
-1.5482 11.5712 -0.0657 0.9544
-2.6044 11.5210 -0.0665 0.9539
-9.1852 11.6204 -0.0834 0.9425
-10.9466 11.5589 -0.0896 0.9383
-13.2697 11.7156 -0.0997 0.9316
-15.9575 11.7322 -0.1115 0.9238
9.1069 12.9538 -0.0892 0.9386
8.9790 11.7376 -0.4161 0.9426
7.7408 12.2457 -0.4079 0.9437
5.9553 11.5975 -0.3671 0.9492
3.5383 11.6123 -0.3418 0.9526
0.3236 11.6288 -0.3276 0.9545
-0.7130 11.5802 -0.3267 0.9546
-1.7542 11.5438 -0.3288 0.9544
-2.8140 11.4933 -0.3332 0.9538
-6.5002 11.6740 -0.3762 0.9479
-9.5032 11.5925 -0.4221 0.9418
5.1304 11.6026 -0.3572 0.9505
3.9380 11.6099 -0.3452 0.9521
2.8146 11.6168 -0.3366 0.9533
1.7376 11.6234 -0.3309 0.9541
0.6879 11.6299 -0.3280 0.9545
-0.3508 11.5972 -0.3267 0.9546
-4.7601 11.6633 -0.3547 0.9508
-6.0288 11.6711 -0.3699 0.9488
-8.9282 11.6131 -0.4125 0.9431
-12.9126 11.7134 -0.4909 0.9326
9.3416 12.9147 -0.4488 0.9382
6.8996 11.5917 -0.3798 0.9475
2.1104 11.6211 -0.3326 0.9538
1.0532 11.6276 -0.3287 0.9544
-1.0239 11.5656 -0.3269 0.9546
-2.0694 11.5288 -0.3298 0.9542
-3.1386 11.4779 -0.3351 0.9535
-6.9180 11.6766 -0.3822 0.9471
-10.0132 11.5677 -0.4308 0.9406
-12.1234 11.7086 -0.4746 0.9348
-14.5365 11.7234 -0.5258 0.9280
9.0536 11.7267 -0.4172 0.9424
6.0205 11.5971 -0.3679 0.9491
4.7638 11.6048 -0.3532 0.9510
3.5947 11.6120 -0.3423 0.9525
1.4205 11.6254 -0.3298 0.9542
-5.1299 11.6656 -0.3588 0.9503
-6.4321 11.6736 -0.3753 0.9481
-9.4205 11.5965 -0.4207 0.9420
-11.1971 11.5117 -0.4522 0.9378
-13.6347 11.7179 -0.5062 0.9306
8.0607 11.7972 -0.4023 0.9444
3.9956 11.6095 -0.3457 0.9521
2.8693 11.6165 -0.3369 0.9532
1.7904 11.6231 -0.3311 0.9540
0.7398 11.6296 -0.3281 0.9544
-0.2992 11.5996 -0.3267 0.9546
-1.3360 11.5558 -0.3276 0.9545
-2.3869 11.5137 -0.3311 0.9540
-4.6995 11.6630 -0.3541 0.9509
-5.9629 11.6707 -0.3690 0.9489
-7.3331 11.6533 -0.3877 0.9464
-10.5450 11.5419 -0.4402 0.9394
-15.3681 11.7285 -0.5444 0.9256
6.9599 11.5755 -0.3803 0.9474
5.6323 11.5995 -0.3631 0.9497
2.1638 11.6208 -0.3328 0.9538
1.1054 11.6273 -0.3289 0.9543
0.0635 11.6166 -0.3271 0.9546
-0.9722 11.5680 -0.3269 0.9546
-3.0844 11.4804 -0.3347 0.9535
-5.5087 11.6679 -0.3633 0.9497
-6.8477 11.6762 -0.3811 0.9473
-14.4038 11.7226 -0.5229 0.9284
9.1361 11.7253 -0.4185 0.9423
7.8213 12.1328 -0.4065 0.9439
6.0859 11.5967 -0.3688 0.9489
4.8240 11.6044 -0.3539 0.9510
2.5415 11.6185 -0.3349 0.9535
1.4730 11.6250 -0.3300 0.9542
-5.0679 11.6652 -0.3581 0.9504
-7.7858 11.6667 -0.3949 0.9454
-9.3371 11.5989 -0.4193 0.9422
-13.5118 11.7171 -0.5036 0.9309
8.0999 11.7422 -0.4017 0.9445
6.5544 11.5938 -0.3750 0.9481
1.8434 11.6228 -0.3314 0.9540
-0.2476 11.6020 -0.3268 0.9546
-1.2839 11.5555 -0.3274 0.9545
-2.3340 11.5162 -0.3309 0.9541
-4.6391 11.6626 -0.3534 0.9510
-5.8974 11.6703 -0.3682 0.9490
-12.6825 11.7120 -0.4861 0.9333
7.5768 12.4756 -0.4110 0.9433
4.4555 11.5845 -0.3495 0.9515
-0.9206 11.5704 -0.3268 0.9546
-1.9645 11.5338 -0.3294 0.9543
-3.0304 11.4829 -0.3344 0.9536
-4.2211 11.6600 -0.3492 0.9516
-14.2727 11.7218 -0.5200 0.9288
9.2192 11.7240 -0.4200 0.9421
7.8614 12.0766 -0.4058 0.9440
6.1517 11.5963 -0.3696 0.9488
3.7080 11.6113 -0.3432 0.9524
1.5255 11.6247 -0.3301 0.9542
-2.6537 11.5009 -0.3323 0.9539
-5.0062 11.6649 -0.3574 0.9505
-6.2969 11.6728 -0.3735 0.9483
-7.7131 11.6701 -0.3939 0.9456
-9.2521 11.5985 -0.4178 0.9424
-13.3901 11.7164 -0.5010 0.9313
6.6224 11.5934 -0.3759 0.9480
5.3161 11.6014 -0.3593 0.9502
4.1112 11.6088 -0.3468 0.9519
2.9790 11.6158 -0.3377 0.9531
1.8963 11.6224 -0.3316 0.9540
0.8437 11.6289 -0.3283 0.9544
-0.1960 11.6045 -0.3268 0.9546
-1.2319 11.5558 -0.3272 0.9546
-2.2812 11.5187 -0.3306 0.9541
-4.5790 11.6622 -0.3528 0.9511
-4.3534 8.7111 -0.2742 0.9618
-7.2047 11.6784 -0.3864 0.9466
-10.3658 11.5506 -0.4370 0.9398
8.9451 12.0253 -0.4220 0.9418
7.6178 12.4181 -0.4102 0.9434
5.7601 11.5987 -0.3646 0.9495
4.5233 11.6063 -0.3507 0.9514
3.3685 11.6134 -0.3405 0.9528
2.2709 11.6201 -0.3334 0.9537
0.1670 11.6215 -0.3273 0.9546
-0.8689 11.5729 -0.3268 0.9546
-1.9122 11.5363 -0.3293 0.9543
-2.9765 11.4855 -0.3341 0.9536
-4.1624 11.6597 -0.3486 0.9517
-6.7083 11.6753 -0.3792 0.9475
-8.1564 11.6493 -0.4004 0.9447
-9.7567 11.5802 -0.4264 0.9412
-14.1429 11.7210 -0.5172 0.9291
9.3027 11.7226 -0.4214 0.9419
6.2177 11.5959 -0.3705 0.9487
4.9453 11.6037 -0.3552 0.9508
-3.7552 11.6572 -0.3449 0.9522
-6.2298 11.6724 -0.3726 0.9484
-9.1705 11.6017 -0.4164 0.9425
-10.9134 11.5240 -0.4469 0.9385
-13.2697 11.7156 -0.4984 0.9316
-15.9575 11.7322 -0.5577 0.9238
10.6333 11.5911 -0.7977 0.9389
7.7408 12.2457 -0.7347 0.9436
5.9553 11.5975 -0.6612 0.9491
3.5383 11.6123 -0.6156 0.9525
2.4334 11.6191 -0.6020 0.9536
1.3681 11.6257 -0.5937 0.9542
-0.7120 11.5648 -0.5876 0.9547
-2.8060 11.4603 -0.5984 0.9538
-3.9859 11.6586 -0.6249 0.9518
-5.1921 11.6660 -0.6476 0.9501
-6.5002 11.6740 -0.6776 0.9479
-9.4527 11.5309 -0.7562 0.9420
9.4594 11.5960 -0.7589 0.9418
8.0213 11.8525 -0.7258 0.9443
1.7376 11.6234 -0.5960 0.9540
0.6879 11.6299 -0.5908 0.9544
-0.3503 11.5823 -0.5877 0.9547
-8.8892 11.5623 -0.7396 0.9433
-15.5120 11.7294 -0.9863 0.9251
12.0488 11.5892 -0.8478 0.9352
10.0767 11.5934 -0.7790 0.9403
9.3416 12.9147 -0.8083 0.9382
6.8996 11.5917 -0.6841 0.9474
5.5689 11.5999 -0.6526 0.9498
3.2014 11.6144 -0.6110 0.9529
1.0532 11.6276 -0.5921 0.9543
-1.0224 11.5496 -0.5880 0.9546
-4.3391 11.6608 -0.6310 0.9514
-5.5725 11.6683 -0.6558 0.9495
-6.9180 11.6766 -0.6883 0.9471
-8.3491 11.5922 -0.7245 0.9444
-9.9569 11.5027 -0.7715 0.9409
-12.1234 11.7086 -0.8548 0.9347
-14.5365 11.7234 -0.9471 0.9279
7.7811 12.1892 -0.7334 0.9437
4.7638 11.6048 -0.6362 0.9510
2.4874 11.6188 -0.6026 0.9535
-0.6605 11.5673 -0.5876 0.9547
-7.8301 11.6208 -0.7106 0.9454
-9.3710 11.5355 -0.7537 0.9422
-13.6347 11.7179 -0.9117 0.9305
8.0607 11.7972 -0.7246 0.9444
2.8693 11.6165 -0.6068 0.9532
1.7904 11.6231 -0.5964 0.9540
0.7398 11.6296 -0.5910 0.9544
-15.3681 11.7285 -0.9804 0.9255
12.1697 11.6017 -0.8527 0.9349
10.1673 11.5930 -0.7820 0.9401
6.9599 11.5755 -0.6850 0.9473
5.6323 11.5995 -0.6539 0.9497
2.1638 11.6208 -0.5995 0.9538
1.1054 11.6273 -0.5923 0.9543
0.0634 11.6023 -0.5884 0.9546
-0.9709 11.5521 -0.5879 0.9546
-3.0754 11.4466 -0.6011 0.9536
-5.5087 11.6679 -0.6544 0.9496
-6.8477 11.6762 -0.6865 0.9472
-14.4038 11.7226 -0.9418 0.9283
9.0309 11.5903 -0.7452 0.9428
6.0859 11.5967 -0.6642 0.9489
1.4730 11.6250 -0.5943 0.9542
-0.6090 11.5698 -0.5876 0.9547
-2.6994 11.4657 -0.5974 0.9539
-5.0679 11.6652 -0.6450 0.9503
-6.3643 11.6732 -0.6743 0.9481
-7.7622 11.6315 -0.7092 0.9455
-9.2897 11.5400 -0.7513 0.9424
-10.9801 11.3896 -0.8023 0.9386
-13.5118 11.7171 -0.9070 0.9309
11.5201 11.5875 -0.8287 0.9367
8.0999 11.7422 -0.7234 0.9445
5.2540 11.6018 -0.6459 0.9503
2.9241 11.6161 -0.6075 0.9532
1.8434 11.6228 -0.5968 0.9540
0.7917 11.6292 -0.5911 0.9544
-0.2473 11.5873 -0.5878 0.9546
-2.3276 11.4846 -0.5943 0.9542
-4.6391 11.6626 -0.6365 0.9510
-5.8974 11.6703 -0.6631 0.9490
-7.2764 11.6781 -0.6978 0.9464
-6.7007 8.8781 -0.5641 0.9564
-15.1889 11.6991 -0.9723 0.9261
-7.7459 -13.2150 -0.7768 0.9405
10.2586 11.5926 -0.7851 0.9399
8.9352 12.1242 -0.7638 0.9415
7.5768 12.4756 -0.7402 0.9432
5.6960 11.5991 -0.6553 0.9496
4.4555 11.5845 -0.6295 0.9515
3.3126 11.6137 -0.6125 0.9528
1.1576 11.6270 -0.5926 0.9543
0.1151 11.6048 -0.5886 0.9546
-0.9193 11.5546 -0.5878 0.9546
-4.2211 11.6600 -0.6289 0.9515
-5.4452 11.6675 -0.6530 0.9497
-9.7873 11.5122 -0.7663 0.9413
-11.9081 11.7073 -0.8469 0.9353
9.1139 11.5900 -0.7477 0.9427
6.1517 11.5963 -0.6657 0.9488
4.8846 11.6041 -0.6385 0.9508
3.7080 11.6113 -0.6182 0.9524
1.5255 11.6247 -0.5946 0.9541
-0.5575 11.5723 -0.5876 0.9547
-2.6462 11.4684 -0.5969 0.9540
-16.1085 11.7331 -1.0107 0.9233
8.1391 11.6874 -0.7223 0.9446
0.8437 11.6289 -0.5913 0.9544
-0.1957 11.5898 -0.5879 0.9546
-1.2301 11.5393 -0.5885 0.9546
-2.2750 11.4872 -0.5939 0.9542
-4.5790 11.6622 -0.6354 0.9511
-4.3534 8.7111 -0.4939 0.9617
-10.3053 11.4831 -0.7825 0.9401
-12.5691 11.7113 -0.8712 0.9335
10.3506 11.5922 -0.7881 0.9397
8.9345 12.0110 -0.7592 0.9418
7.6178 12.4181 -0.7388 0.9433
3.3685 11.6134 -0.6132 0.9527
2.2709 11.6201 -0.6005 0.9537
0.1668 11.6072 -0.5887 0.9546
-0.8678 11.5571 -0.5878 0.9546
-2.9678 11.4520 -0.6000 0.9537
-4.1624 11.6597 -0.6279 0.9516
-6.7083 11.6753 -0.6829 0.9475
-11.8020 11.7066 -0.8430 0.9356
-14.1429 11.7210 -0.9315 0.9291
11.0181 11.5895 -0.8110 0.9380
4.9453 11.6037 -0.6397 0.9507
3.7650 11.6109 -0.6190 0.9523
0.5301 11.6127 -0.5895 0.9545
-3.7552 11.6572 -0.6211 0.9521
-4.9447 11.6645 -0.6425 0.9505
-6.2298 11.6724 -0.6710 0.9484
-7.6296 11.6561 -0.7065 0.9457
-9.1287 11.5490 -0.7466 0.9427
-10.8272 11.4329 -0.7985 0.9389
-15.9575 11.7322 -1.0045 0.9237
7.7408 12.2457 -1.0622 0.9436
5.9553 11.5975 -0.9559 0.9491
4.7037 11.6052 -0.9182 0.9510
3.5383 11.6123 -0.8901 0.9525
2.4334 11.6191 -0.8704 0.9535
-0.7082 11.5028 -0.8450 0.9548
-5.1921 11.6660 -0.9363 0.9501
-10.9702 11.1784 -1.1484 0.9391
-13.7590 11.7187 -1.3252 0.9301
8.0213 11.8525 -1.0494 0.9442
6.4194 11.5946 -0.9717 0.9482
5.1304 11.6026 -0.9302 0.9504
3.9380 11.6099 -0.8989 0.9520
2.8146 11.6168 -0.8764 0.9532
0.6879 11.6299 -0.8542 0.9543
-1.3778 11.4698 -0.8470 0.9547
-2.4199 11.4170 -0.8557 0.9543
-3.5713 11.6200 -0.8913 0.9524
-4.7601 11.6633 -0.9237 0.9507
-6.0288 11.6711 -0.9632 0.9487
-15.5120 11.7294 -1.4259 0.9250
-12.1685 -12.0760 -1.2570 0.9336
9.2581 12.7993 -1.1582 0.9386
3.2014 11.6144 -0.8834 0.9528
2.1104 11.6211 -0.8660 0.9537
-1.0170 11.4877 -0.8456 0.9548
-3.0918 11.3068 -0.8595 0.9541
-5.5725 11.6683 -0.9481 0.9495
-9.8894 11.4248 -1.1079 0.9412
-12.1234 11.7086 -1.2358 0.9346
6.0205 11.5971 -0.9581 0.9489
3.5947 11.6120 -0.8913 0.9524
0.3745 11.6007 -0.8510 0.9545
-3.9280 11.6582 -0.9020 0.9519
-7.8289 11.6191 -1.0273 0.9454
-13.6347 11.7179 -1.3182 0.9304
8.0607 11.7972 -1.0476 0.9443
5.1921 11.6022 -0.9320 0.9503
3.9956 11.6095 -0.9002 0.9519
-0.2972 11.5228 -0.8452 0.9548
-2.3674 11.4197 -0.8551 0.9543
-4.6995 11.6630 -0.9220 0.9508
-10.3713 11.3517 -1.1274 0.9402
-12.7970 11.7127 -1.2720 0.9328
-15.3681 11.7285 -1.4175 0.9254
9.3447 12.7988 -1.1620 0.9384
6.9599 11.5755 -0.9903 0.9473
5.6323 11.5995 -0.9455 0.9496
1.1054 11.6273 -0.8564 0.9542
-8.2362 11.5435 -1.0397 0.9447
-9.8051 11.4298 -1.1042 0.9414
-12.0153 11.7079 -1.2301 0.9349
7.8213 12.1328 -1.0584 0.9437
6.0859 11.5967 -0.9603 0.9488
4.8241 11.6044 -0.9215 0.9508
3.6513 11.6116 -0.8925 0.9524
2.5415 11.6185 -0.8720 0.9534
-3.8702 11.6579 -0.9007 0.9519
-6.3643 11.6732 -0.9748 0.9481
-7.7622 11.6315 -1.0253 0.9455
-9.2285 11.4639 -1.0791 0.9427
-10.8189 11.2223 -1.1429 0.9394
6.5544 11.5938 -0.9765 0.9480
5.2540 11.6018 -0.9338 0.9502
2.9241 11.6161 -0.8783 0.9531
1.8434 11.6228 -0.8629 0.9539
0.7917 11.6292 -0.8547 0.9543
-0.2460 11.5253 -0.8452 0.9548
-2.3150 11.4224 -0.8545 0.9543
-4.6391 11.6626 -0.9203 0.9509
-12.6825 11.7120 -1.2658 0.9331
-15.1889 11.6991 -1.4057 0.9260
7.5768 12.4756 -1.0702 0.9431
3.3126 11.6137 -0.8855 0.9527
0.1148 11.5816 -0.8492 0.9546
-0.9144 11.4927 -0.8453 0.9548
-2.9911 11.3338 -0.8595 0.9541
-4.2211 11.6600 -0.9092 0.9515
-6.7779 11.6758 -0.9899 0.9473
-8.1679 11.5562 -1.0376 0.9448
-11.9081 11.7073 -1.2244 0.9352
9.2147 11.7183 -1.0930 0.9420
7.8614 12.0766 -1.0566 0.9438
3.7080 11.6113 -0.8937 0.9523
2.5956 11.6181 -0.8729 0.9534
-2.6318 11.4061 -0.8583 0.9541
-5.0062 11.6649 -0.9307 0.9504
-7.6957 11.6438 -1.0234 0.9456
-16.1085 11.7331 -1.4612 0.9232
5.3161 11.6014 -0.9357 0.9501
2.9790 11.6158 -0.8793 0.9530
1.8963 11.6224 -0.8635 0.9539
-1.2235 11.4775 -0.8463 0.9548
-2.2627 11.4250 -0.8540 0.9544
-3.2945 11.2524 -0.8597 0.9541
-4.3431 8.6904 -0.7123 0.9618
-10.2252 11.3939 -1.1225 0.9404
5.7601 11.5987 -0.9495 0.9494
4.5234 11.6063 -0.9133 0.9513
3.3685 11.6134 -0.8866 0.9527
-0.8631 11.4952 -0.8452 0.9548
-4.1624 11.6597 -0.9078 0.9516
-5.3819 11.6672 -0.9421 0.9498
-6.7083 11.6753 -0.9873 0.9474
-8.1000 11.5688 -1.0355 0.9449
-9.6383 11.4397 -1.0968 0.9418
-14.1429 11.7210 -1.3468 0.9290
9.2989 11.7177 -1.0968 0.9418
6.2177 11.5959 -0.9647 0.9486
4.9453 11.6037 -0.9249 0.9507
2.6498 11.6178 -0.8737 0.9533
0.5301 11.6127 -0.8524 0.9544
-0.5033 11.5128 -0.8449 0.9548
-3.7552 11.6572 -0.8980 0.9521
-4.9447 11.6645 -0.9289 0.9505
-7.6296 11.6561 -1.0215 0.9457
-9.0689 11.4733 -1.0723 0.9430
-13.2697 11.7156 -1.2979 0.9315
-15.9575 11.7322 -1.4522 0.9236
17.1617 8.7438 -1.8491 0.9255
13.0334 14.2073 -1.8510 0.9255
7.7408 12.2457 -1.3908 0.9434
4.7037 11.6052 -1.2022 0.9509
2.4334 11.6191 -1.1397 0.9534
1.3681 11.6257 -1.1238 0.9541
-0.7044 11.4413 -1.1005 0.9550
-2.7525 11.2421 -1.1112 0.9546
-3.9859 11.6586 -1.1829 0.9517
-6.5002 11.6740 -1.2828 0.9477
-9.3279 11.3786 -1.4125 0.9426
-13.7551 11.7154 -1.7346 0.9300
-15.7186 11.1311 -1.8491 0.9255
-18.1455 6.5873 -1.8533 0.9254
-13.2406 -13.9879 -1.8491 0.9255
-10.5445 -16.1179 -1.8491 0.9255
-5.9011 -18.3345 -1.8491 0.9255
-2.5496 -19.0912 -1.8491 0.9255
18.6840 6.8339 -1.9100 0.9232
17.4265 8.2032 -1.8491 0.9255
15.6917 11.1690 -1.8491 0.9255
13.4594 13.7813 -1.8494 0.9255
8.0213 11.8525 -1.3740 0.9441
1.7376 11.6234 -1.1283 0.9539
-1.3704 11.4083 -1.1031 0.9549
-4.7601 11.6633 -1.2094 0.9506
-6.0288 11.6711 -1.2611 0.9486
-10.3864 16.3437 -1.8591 0.9251
-8.7951 11.4399 -1.3853 0.9437
-16.3380 10.2002 -1.8491 0.9255
-17.1827 8.7023 -1.8491 0.9255
-17.8904 7.1350 -1.8491 0.9255
-14.8268 -12.2939 -1.8491 0.9255
-12.1258 -12.0337 -1.6401 0.9337
-7.6296 -13.2862 -1.4709 0.9403
-8.0635 -17.4916 -1.8491 0.9255
-4.8273 -18.6460 -1.8491 0.9255
-3.1450 -19.0022 -1.8491 0.9255
17.6743 7.6546 -1.8491 0.9255
16.9211 9.2006 -1.8491 0.9255
16.0331 10.6732 -1.8491 0.9255
9.2581 12.7993 -1.5166 0.9385
6.8150 18.2010 -1.8659 0.9249
-1.0115 11.4262 -1.1013 0.9550
-2.0417 11.3742 -1.1094 0.9546
-4.3391 11.6608 -1.1945 0.9512
-5.5725 11.6683 -1.2414 0.9494
-6.9180 11.6766 -1.3030 0.9469
-8.3048 11.5308 -1.3643 0.9445
-14.9926 12.0912 -1.8491 0.9255
-16.0113 10.7058 -1.8491 0.9255
-17.6587 7.6906 -1.8491 0.9255
-14.0885 -13.1335 -1.8491 0.9255
-11.5308 -15.4278 -1.8491 0.9255
-7.0349 -17.9300 -1.8491 0.9255
-5.4076 -18.4860 -1.8491 0.9255
-3.7372 -18.8947 -1.8491 0.9255
17.9798 7.1283 -1.8569 0.9252
17.2004 8.6673 -1.8491 0.9255
16.3587 10.1670 -1.8491 0.9255
15.3867 11.5855 -1.8491 0.9255
14.2920 12.9118 -1.8491 0.9255
9.0479 11.7193 -1.4214 0.9422
7.7811 12.1892 -1.3883 0.9435
3.5947 11.6120 -1.1670 0.9523
1.4205 11.6254 -1.1244 0.9540
-0.6535 11.4438 -1.1005 0.9550
-1.6794 11.3927 -1.1056 0.9548
-3.9280 11.6582 -1.1811 0.9518
-5.1299 11.6656 -1.2235 0.9501
-6.4321 11.6736 -1.2796 0.9479
-10.7358 11.0374 -1.4782 0.9400
-18.0752 6.6529 -1.8491 0.9255
-12.0073 -15.0599 -1.8491 0.9255
-9.1404 -16.9537 -1.8491 0.9255
-7.5918 -17.7014 -1.8491 0.9255
-5.9826 -18.3080 -1.8491 0.9255
-2.6345 -19.0797 -1.8491 0.9255
16.6685 9.6508 -1.8491 0.9255
15.7412 11.0991 -1.8491 0.9255
14.6885 12.4588 -1.8491 0.9255
13.5187 13.7193 -1.8491 0.9255
12.2706 14.9062 -1.8536 0.9253
8.0607 11.7972 -1.3717 0.9442
5.1921 11.6022 -1.2203 0.9502
0.7398 11.6296 -1.1188 0.9543
-0.2968 11.5053 -1.1049 0.9548
-2.3526 11.3483 -1.1127 0.9545
-3.3519 11.0814 -1.1115 0.9545
-4.6995 11.6630 -1.2072 0.9507
-7.3331 11.6533 -1.3219 0.9462
-6.7537 8.8660 -1.0700 0.9562
-10.2227 11.1891 -1.4550 0.9409
-12.7970 11.7127 -1.6655 0.9327
-15.3113 11.6851 -1.8491 0.9255
-7.6302 -13.1514 -1.4597 0.9407
-6.5518 -18.1121 -1.8491 0.9255
-3.2295 -18.9881 -1.8491 0.9255
17.7082 7.5759 -1.8491 0.9255
16.9619 9.1252 -1.8491 0.9255
15.0707 11.9938 -1.8491 0.9255
5.6323 11.5995 -1.2379 0.9495
6.8955 18.1693 -1.8657 0.9249
3.2569 11.6141 -1.1580 0.9527
2.1638 11.6208 -1.1348 0.9536
-0.9605 11.4288 -1.1011 0.9550
-1.9899 11.3768 -1.1088 0.9546
-4.2800 11.6604 -1.1925 0.9513
-6.8477 11.6762 -1.2995 0.9471
-8.2362 11.5435 -1.3614 0.9446
-16.8611 9.3101 -1.8491 0.9255
-17.6243 7.7691 -1.8491 0.9255
-12.9246 -14.2805 -1.8491 0.9255
-11.5993 -15.3763 -1.8491 0.9255
-8.6827 -17.1926 -1.8491 0.9255
-7.1146 -17.8985 -1.8491 0.9255
-5.4899 -18.4618 -1.8491 0.9255
-3.8212 -18.8779 -1.8491 0.9255
-2.1355 -19.2636 -1.8607 0.9251
17.9971 7.0426 -1.8554 0.9253
15.4381 11.5169 -1.8491 0.9255
13.1561 14.0874 -1.8505 0.9255
7.8213 12.1328 -1.3859 0.9436
3.6513 11.6116 -1.1686 0.9523
1.4730 11.6250 -1.1250 0.9540
0.7154 19.4714 -1.8706 0.9247
-0.6026 11.4485 -1.1006 0.9550
-1.6280 11.3953 -1.1051 0.9548
-6.3643 11.6732 -1.2764 0.9480
-10.6617 11.0593 -1.4748 0.9401
-15.6189 11.2705 -1.8491 0.9255
-17.3729 8.3160 -1.8491 0.9255
-18.0455 6.7333 -1.8491 0.9255
-14.5484 -12.6223 -1.8491 0.9255
-13.3645 -13.8696 -1.8491 0.9255
-9.2157 -16.9129 -1.8491 0.9255
-7.6705 -17.6675 -1.8491 0.9255
-6.0640 -18.2812 -1.8491 0.9255
-4.4093 -18.7492 -1.8491 0.9255
15.7904 11.0289 -1.8491 0.9255
14.7438 12.3934 -1.8491 0.9255
13.5796 13.6590 -1.8491 0.9255
4.0533 11.6092 -1.1805 0.9518
2.9241 11.6161 -1.1500 0.9530
-7.2764 11.6781 -1.3210 0.9462
-10.1508 11.2103 -1.4519 0.9410
-12.6825 11.7120 -1.6573 0.9330
-15.1889 11.6991 -1.8406 0.9259
-16.2466 10.3452 -1.8491 0.9255
-12.5372 -14.6217 -1.8491 0.9255
-8.2188 -17.4192 -1.8491 0.9255
-6.6323 -18.0828 -1.8491 0.9255
-4.9931 -18.6023 -1.8491 0.9255
16.1274 10.5301 -1.8491 0.9255
12.7830 14.4453 -1.8519 0.9254
8.9352 12.1242 -1.4459 0.9413
7.5768 12.4756 -1.4013 0.9430
2.2173 11.6205 -1.1358 0.9536
1.1576 11.6270 -1.1218 0.9541
-0.9095 11.4313 -1.1009 0.9550
-1.9382 11.3795 -1.1082 0.9547
-2.9528 11.1887 -1.1109 0.9546
-4.2211 11.6600 -1.1905 0.9514
-8.1679 11.5562 -1.3586 0.9447
-11.9081 11.7073 -1.6032 0.9351
-15.9154 10.8478 -1.8491 0.9255
-17.5896 7.8475 -1.8491 0.9255
-8.7591 -17.1538 -1.8491 0.9255
-7.1942 -17.8667 -1.8491 0.9255
-5.5719 -18.4372 -1.8491 0.9255
-3.9052 -18.8607 -1.8491 0.9255
-2.2074 -19.1338 -1.8491 0.9255
18.0283 6.9625 -1.8554 0.9253
13.2171 14.0270 -1.8503 0.9255
7.8614 12.0766 -1.3834 0.9437
6.1517 11.5963 -1.2603 0.9486
3.7080 11.6113 -1.1702 0.9522
-0.5520 11.4579 -1.1013 0.9550
-1.5767 11.3979 -1.1047 0.9548
-2.6032 11.2819 -1.1116 0.9545
-3.8125 11.6575 -1.1775 0.9519
-10.5881 11.0812 -1.4714 0.9403
-13.3901 11.7164 -1.7082 0.9310
-15.5686 11.3399 -1.8491 0.9255
-16.5180 9.9061 -1.8491 0.9255
-17.3358 8.3932 -1.8491 0.9255
-14.6044 -12.5574 -1.8491 0.9255
-11.9358 -12.2771 -1.6439 0.9335
-12.1408 -14.9525 -1.8491 0.9255
-10.7588 -15.9758 -1.8491 0.9255
-9.2909 -16.8717 -1.8491 0.9255
-7.7490 -17.6332 -1.8491 0.9255
-6.1454 -18.2540 -1.8491 0.9255
15.8394 10.9585 -1.8491 0.9255
14.7988 12.3277 -1.8491 0.9255
12.3999 14.7931 -1.8532 0.9254
8.1391 11.6874 -1.3673 0.9444
6.6224 11.5934 -1.2818 0.9478
5.3161 11.6014 -1.2252 0.9500
4.1112 11.6088 -1.1823 0.9517
2.9790 11.6158 -1.1513 0.9530
1.8963 11.6224 -1.1306 0.9538
0.8437 11.6289 -1.1194 0.9542
-1.2170 11.4160 -1.1022 0.9549
-2.2504 11.3633 -1.1121 0.9545
-4.3533 8.7110 -0.9349 0.9616
-6.6729 8.9236 -1.0697 0.9562
-16.2004 10.4174 -1.8491 0.9255
-17.0651 8.9309 -1.8491 0.9255
-17.7936 7.3732 -1.8491 0.9255
-12.6021 -14.5658 -1.8491 0.9255
-7.7235 -13.0435 -1.4553 0.9409
-8.2962 -17.3824 -1.8491 0.9255
-3.3983 -18.9586 -1.8491 0.9255
17.0425 8.9739 -1.8491 0.9255
16.1741 10.4582 -1.8491 0.9255
8.9345 12.0110 -1.4372 0.9416
7.6178 12.4181 -1.3986 0.9431
4.5234 11.6063 -1.1959 0.9512
3.3685 11.6134 -1.1609 0.9526
2.2709 11.6201 -1.1367 0.9535
-2.9030 11.2020 -1.1110 0.9546
-4.1624 11.6597 -1.1886 0.9515
-5.3819 11.6672 -1.2335 0.9497
-8.1000 11.5688 -1.3558 0.9448
-9.5739 11.3632 -1.4265 0.9420
-11.8020 11.7066 -1.5959 0.9354
-14.1354 11.7147 -1.7625 0.9289
-14.2625 -12.9443 -1.8491 0.9255
-13.0512 -14.1648 -1.8491 0.9255
-7.2736 -17.8345 -1.8491 0.9255
-3.9891 -18.8431 -1.8491 0.9255
15.5400 11.3791 -1.8491 0.9255
14.4631 12.7198 -1.8491 0.9255
6.2177 11.5959 -1.2632 0.9485
2.6498 11.6178 -1.1440 0.9532
-0.5014 11.4673 -1.1020 0.9549
-2.5533 11.2951 -1.1117 0.9545
-3.7552 11.6572 -1.1758 0.9520
-4.9447 11.6645 -1.2163 0.9504
-7.6296 11.6561 -1.3374 0.9456
-10.5147 11.1029 -1.4681 0.9404
-13.2697 11.7156 -1.6994 0.9313
-15.5180 11.4090 -1.8491 0.9255
-17.2983 8.4703 -1.8491 0.9255
-11.9611 -12.1941 -1.6399 0.9337
-12.2072 -14.8983 -1.8491 0.9255
-9.3659 -16.8302 -1.8491 0.9255
-7.8274 -17.5985 -1.8491 0.9255
-6.2264 -18.2266 -1.8491 0.9255
-4.5759 -18.7093 -1.8491 0.9255
-2.8889 -19.0428 -1.8491 0.9255
17.5698 7.8917 -1.8491 0.9255
16.7958 9.4274 -1.8491 0.9255
15.8879 10.8880 -1.8491 0.9255
14.8535 12.2617 -1.8491 0.9255
13.7006 13.5377 -1.8491 0.9255
12.4642 14.7360 -1.8529 0.9254
8.9994 12.8009 -1.5023 0.9391
8.4262 -14.5917 -2.0015 0.9344
11.9886 -11.8403 -2.0015 0.9344
15.9264 -5.5016 -2.0015 0.9344
16.3536 -4.0591 -2.0015 0.9344
16.7406 1.9161 -2.0015 0.9344
15.6360 6.2797 -2.0015 0.9344
12.3941 9.4189 -1.8491 0.9392
7.7408 12.2457 -1.7209 0.9433
4.7037 11.6052 -1.4875 0.9508
3.5383 11.6123 -1.4420 0.9523
0.3234 11.6203 -1.3809 0.9543
-0.7037 11.4298 -1.3603 0.9549
-7.8958 11.6067 -1.6675 0.9450
-9.8690 12.0387 -1.8491 0.9392
-11.8510 10.0936 -1.8491 0.9392
-12.7041 8.9964 -1.8491 0.9392
-13.4559 7.8274 -1.8491 0.9392
-16.7956 1.3515 -2.0015 0.9344
-16.8492 -0.1520 -2.0015 0.9344
-16.5541 -3.1433 -2.0015 0.9344
-15.7322 -6.0346 -2.0015 0.9344
-15.1312 -7.4138 -2.0015 0.9344
-12.6286 -11.1551 -2.0015 0.9344
-11.0043 -11.6254 -1.9015 0.9376
-9.6502 -12.2148 -1.8491 0.9392
-8.5223 -13.0268 -1.8491 0.9392
-7.3264 -13.7351 -1.8491 0.9392
-4.7694 -14.8183 -1.8491 0.9392
-3.5582 -15.7582 -1.9190 0.9370
-0.7319 -16.8340 -2.0015 0.9344
0.7725 -16.8321 -2.0015 0.9344
3.7509 -16.4271 -2.0015 0.9344
6.6100 -15.4992 -2.0015 0.9344
7.9661 -14.8479 -2.0015 0.9344
9.2587 -14.0782 -2.0015 0.9344
10.4775 -13.1962 -2.0015 0.9344
15.7467 -5.9966 -2.0015 0.9344
16.5616 -3.1033 -2.0015 0.9344
16.7923 1.3920 -2.0015 0.9344
16.2778 4.3535 -2.0015 0.9344
13.4369 7.8598 -1.8491 0.9392
11.8266 10.1222 -1.8491 0.9392
10.8766 11.1367 -1.8491 0.9392
5.1304 11.6026 -1.5069 0.9502
1.7376 11.6234 -1.3960 0.9538
0.6879 11.6299 -1.3839 0.9542
-1.3631 11.3473 -1.3576 0.9550
-2.3720 11.1910 -1.3589 0.9550
-6.0288 11.6711 -1.5604 0.9485
-6.7638 8.7979 -1.3182 0.9563
-11.5298 10.4590 -1.8491 0.9392
-12.4167 9.3890 -1.8491 0.9392
-13.2047 8.2440 -1.8491 0.9392
-14.1997 7.1915 -1.8907 0.9379
-15.6511 6.2420 -2.0015 0.9344
-16.1454 4.8211 -2.0015 0.9344
-16.5111 3.3618 -2.0015 0.9344
-16.8120 -1.1294 -2.0015 0.9344
-16.6442 -2.6245 -2.0015 0.9344
-15.3555 -6.9373 -2.0015 0.9344
-14.6755 -8.2793 -2.0015 0.9344
-12.9710 -10.7551 -2.0015 0.9344
-8.9252 -12.7542 -1.8491 0.9392
-7.5557 -13.1574 -1.8023 0.9407
-6.5171 -14.1371 -1.8491 0.9392
-1.2576 -16.8029 -2.0015 0.9344
1.7479 -16.7590 -2.0015 0.9344
6.1224 -15.6982 -2.0015 0.9344
7.4982 -15.0896 -2.0015 0.9344
10.0600 -13.5172 -2.0015 0.9344
12.3016 -11.5147 -2.0015 0.9344
13.2797 -10.3715 -2.0015 0.9344
14.1518 -9.1457 -2.0015 0.9344
16.4566 -3.6194 -2.0015 0.9344
16.8378 -0.6378 -2.0015 0.9344
16.8276 0.8666 -2.0015 0.9344
16.4058 3.8427 -2.0015 0.9344
15.9977 5.2907 -2.0015 0.9344
13.8366 7.5234 -1.8708 0.9385
12.9582 8.6263 -1.8491 0.9392
12.1372 9.7477 -1.8491 0.9392
11.2194 10.7914 -1.8491 0.9392
9.1234 12.6131 -1.8491 0.9392
6.8996 11.5917 -1.6024 0.9471
5.4684 14.6047 -1.8525 0.9391
1.0532 11.6276 -1.3869 0.9541
0.0118 11.5625 -1.3735 0.9545
-2.0252 11.2822 -1.3616 0.9549
-4.3391 11.6608 -1.4779 0.9511
-10.1881 11.7698 -1.8491 0.9392
-12.1173 9.7724 -1.8491 0.9392
-12.9406 8.6526 -1.8491 0.9392
-13.6608 7.4639 -1.8491 0.9392
-15.4280 6.7191 -1.9989 0.9345
-16.3980 3.8761 -2.0015 0.9344
-16.6784 2.3980 -2.0015 0.9344
-16.7181 -2.1031 -2.0015 0.9344
-16.4639 -3.5858 -2.0015 0.9344
-16.0784 -5.0400 -2.0015 0.9344
-15.5648 -6.4541 -2.0015 0.9344
-12.2937 -11.4604 -1.9964 0.9345
-5.6858 -14.4914 -1.8491 0.9392
-4.3706 -14.9408 -1.8491 0.9392
-3.2194 -16.2767 -1.9709 0.9353
-1.7820 -16.7554 -2.0015 0.9344
1.2234 -16.8054 -2.0015 0.9344
2.7175 -16.6293 -2.0015 0.9344
5.6289 -15.8819 -2.0015 0.9344
7.0230 -15.3165 -2.0015 0.9344
10.8274 -12.9107 -2.0015 0.9344
13.8591 -9.5835 -2.0015 0.9344
14.6587 -8.3092 -2.0015 0.9344
16.6389 -2.6583 -2.0015 0.9344
16.5179 3.3281 -2.0015 0.9344
16.1552 4.7882 -2.0015 0.9344
15.6638 6.2100 -2.0015 0.9344
13.2214 8.2171 -1.8491 0.9392
12.4358 9.3636 -1.8491 0.9392
11.5511 10.4355 -1.8491 0.9392
2.4874 11.6188 -1.4114 0.9533
-0.6532 11.4391 -1.3610 0.9549
-3.9279 11.6582 -1.4613 0.9517
-5.1299 11.6656 -1.5138 0.9500
-7.8289 11.6191 -1.6643 0.9451
-9.8154 12.0825 -1.8491 0.9392
-10.8539 11.1589 -1.8491 0.9392
-12.6639 9.0528 -1.8491 0.9392
-13.4209 7.8871 -1.8491 0.9392
-15.8128 5.8202 -2.0015 0.9344
-16.2688 4.3866 -2.0015 0.9344
-16.8497 -0.0770 -2.0015 0.9344
-16.7757 -1.5796 -2.0015 0.9344
-16.5679 -3.0696 -2.0015 0.9344
-16.2281 -4.5352 -2.0015 0.9344
-13.6175 -9.9238 -2.0015 0.9344
-9.7045 -12.1717 -1.8491 0.9392
-6.1358 -14.3066 -1.8491 0.9392
-4.8353 -14.7969 -1.8491 0.9392
-2.3048 -16.6915 -2.0015 0.9344
0.6976 -16.8354 -2.0015 0.9344
2.1965 -16.7061 -2.0015 0.9344
7.9000 -14.8832 -2.0015 0.9344
10.4187 -13.2427 -2.0015 0.9344
11.5583 -12.2607 -2.0015 0.9344
12.6058 -11.1808 -2.0015 0.9344
14.3918 -8.7632 -2.0015 0.9344
15.1161 -7.4445 -2.0015 0.9344
16.1983 -4.6403 -2.0015 0.9344
16.8488 -0.1863 -2.0015 0.9344
16.7983 1.3173 -2.0015 0.9344
15.0844 7.0189 -1.9763 0.9352
12.7224 8.9705 -1.8491 0.9392
6.4868 11.5942 -1.5781 0.9479
3.9956 11.6095 -1.4584 0.9517
2.8693 11.6165 -1.4213 0.9529
-0.2968 11.5053 -1.3671 0.9547
-2.3227 11.2040 -1.3592 0.9550
-3.3093 10.9407 -1.3577 0.9550
-4.6995 11.6630 -1.4936 0.9506
-7.3331 11.6533 -1.6355 0.9460
-6.7018 8.7979 -1.3137 0.9564
-12.3749 9.4441 -1.8491 0.9392
-14.0779 7.2087 -1.8787 0.9383
-15.6232 6.3115 -2.0015 0.9344
-16.1238 4.8928 -2.0015 0.9344
-16.8439 0.4495 -2.0015 0.9344
-15.9376 -5.4692 -2.0015 0.9344
-11.7892 -11.5960 -1.9643 0.9356
-8.9819 -12.7143 -1.8491 0.9392
-6.5799 -14.1079 -1.8491 0.9392
-4.0018 -15.1787 -1.8646 0.9387
-1.3323 -16.7971 -2.0015 0.9344
0.1712 -16.8490 -2.0015 0.9344
1.6733 -16.7666 -2.0015 0.9344
4.6258 -16.2025 -2.0015 0.9344
8.7503 -14.3997 -2.0015 0.9344
9.9998 -13.5618 -2.0015 0.9344
11.1695 -12.6159 -2.0015 0.9344
12.2503 -11.5693 -2.0015 0.9344
14.8761 -7.9133 -2.0015 0.9344
16.4403 -3.6926 -2.0015 0.9344
16.8313 0.7917 -2.0015 0.9344
16.6936 2.2898 -2.0015 0.9344
16.0211 5.2195 -2.0015 0.9344
15.4625 6.6151 -1.9978 0.9345
13.9449 7.5021 -1.8809 0.9382
12.9965 8.5685 -1.8491 0.9392
12.1804 9.6936 -1.8491 0.9392
5.6323 11.5995 -1.5317 0.9494
2.1638 11.6208 -1.4041 0.9535
1.1054 11.6273 -1.3874 0.9540
0.0633 11.5720 -1.3746 0.9545
-1.9756 11.2951 -1.3621 0.9549
-6.8477 11.6762 -1.6079 0.9469
-9.0414 12.6721 -1.8491 0.9392
-11.1491 10.8639 -1.8491 0.9392
-12.0737 9.8262 -1.8491 0.9392
-13.6275 7.5246 -1.8491 0.9392
-15.9631 5.3943 -2.0015 0.9344
-16.3806 3.9490 -2.0015 0.9344
-16.4797 -3.5126 -2.0015 0.9344
-16.1007 -4.9684 -2.0015 0.9344
-15.5934 -6.3848 -2.0015 0.9344
-13.3466 -10.2852 -2.0015 0.9344
-12.3500 -11.4106 -1.9973 0.9345
-7.0175 -13.8954 -1.8491 0.9392
-1.8566 -16.7473 -2.0015 0.9344
-0.3554 -16.8461 -2.0015 0.9344
2.6434 -16.6412 -2.0015 0.9344
6.9548 -15.3476 -2.0015 0.9344
8.2960 -14.6661 -2.0015 0.9344
9.5711 -13.8677 -2.0015 0.9344
10.7698 -12.9587 -2.0015 0.9344
11.8828 -11.9464 -2.0015 0.9344
12.9010 -10.8390 -2.0015 0.9344
13.8163 -9.6451 -2.0015 0.9344
14.6216 -8.3743 -2.0015 0.9344
16.6269 -2.7324 -2.0015 0.9344
16.8043 -1.2384 -2.0015 0.9344
16.1764 4.7163 -2.0015 0.9344
13.2579 8.1582 -1.8491 0.9392
10.6250 11.3771 -1.8491 0.9392
9.1310 11.7188 -1.7647 0.9419
7.8213 12.1328 -1.7147 0.9435
3.6513 11.6116 -1.4459 0.9522
2.5414 11.6185 -1.4127 0.9532
0.5737 15.6162 -1.8562 0.9390
-0.6026 11.4485 -1.3618 0.9549
-1.6193 11.3342 -1.3600 0.9549
-2.6193 11.1255 -1.3577 0.9550
-3.8702 11.6579 -1.4591 0.9517
-11.7607 10.1987 -1.8491 0.9392
-13.3857 7.9468 -1.8491 0.9392
-16.2492 4.4590 -2.0015 0.9344
-16.5814 -2.9959 -2.0015 0.9344
-16.2481 -4.4629 -2.0015 0.9344
-13.6615 -9.8631 -2.0015 0.9344
-12.7274 -11.0423 -2.0015 0.9344
-9.7586 -12.1284 -1.8491 0.9392
-7.4483 -13.6693 -1.8491 0.9392
-4.9011 -14.7752 -1.8491 0.9392
-3.6696 -15.6041 -1.9041 0.9375
-2.3790 -16.6811 -2.0015 0.9344
-0.8816 -16.8268 -2.0015 0.9344
0.6227 -16.8384 -2.0015 0.9344
3.6046 -16.4598 -2.0015 0.9344
9.1330 -14.1600 -2.0015 0.9344
11.5037 -12.3120 -2.0015 0.9344
12.5560 -11.2368 -2.0015 0.9344
13.5082 -10.0721 -2.0015 0.9344
16.1775 -4.7123 -2.0015 0.9344
16.7574 -1.7629 -2.0015 0.9344
16.8478 -0.2613 -2.0015 0.9344
16.3159 4.2085 -2.0015 0.9344
13.5064 7.7399 -1.8491 0.9392
12.7621 8.9138 -1.8491 0.9392
11.9162 10.0166 -1.8491 0.9392
10.9753 11.0395 -1.8491 0.9392
5.2540 11.6018 -1.5129 0.9500
4.0533 11.6092 -1.4606 0.9517
1.8434 11.6228 -1.3979 0.9537
0.7917 11.6292 -1.3846 0.9541
-0.2458 11.5147 -1.3681 0.9547
-1.2613 11.3524 -1.3568 0.9550
-2.2734 11.2170 -1.3595 0.9549
-3.2602 10.9539 -1.3576 0.9550
-4.6391 11.6626 -1.4909 0.9507
-4.3804 8.6684 -1.1537 0.9616
-7.2764 11.6781 -1.6344 0.9461
-6.6299 8.7843 -1.3073 0.9566
-11.4363 10.5612 -1.8491 0.9392
-13.9576 7.2257 -1.8670 0.9387
-15.5949 6.3810 -2.0015 0.9344
-16.1019 4.9645 -2.0015 0.9344
-16.4805 3.5085 -2.0015 0.9344
-16.7278 2.0246 -2.0015 0.9344
-16.8214 -0.9798 -2.0015 0.9344
-16.6669 -2.4762 -2.0015 0.9344
-16.3796 -3.9530 -2.0015 0.9344
-15.4166 -6.8004 -2.0015 0.9344
-14.7486 -8.1484 -2.0015 0.9344
-13.9631 -9.4314 -2.0015 0.9344
-13.0662 -10.6392 -2.0015 0.9344
-9.0383 -12.6743 -1.8491 0.9392
-7.6044 -12.9736 -1.7863 0.9412
-6.6426 -14.0785 -1.8491 0.9392
-2.8915 -16.5550 -1.9963 0.9345
-1.4071 -16.7910 -2.0015 0.9344
0.0962 -16.8496 -2.0015 0.9344
1.5988 -16.7739 -2.0015 0.9344
3.0885 -16.5644 -2.0015 0.9344
5.9825 -15.7521 -2.0015 0.9344
7.3636 -15.1557 -2.0015 0.9344
8.6861 -14.4385 -2.0015 0.9344
11.1133 -12.6654 -2.0015 0.9344
12.1987 -11.6237 -2.0015 0.9344
13.1869 -10.4893 -2.0015 0.9344
14.0699 -9.2713 -2.0015 0.9344
16.0224 -5.2156 -2.0015 0.9344
16.6941 -2.2857 -2.0015 0.9344
16.8346 0.7168 -2.0015 0.9344
16.7036 2.2155 -2.0015 0.9344
16.0442 5.1481 -2.0015 0.9344
15.5135 6.5555 -2.0006 0.9344
14.0542 7.4804 -1.8912 0.9379
11.3149 10.6912 -1.8491 0.9392
10.3162 11.6577 -1.8491 0.9392
8.9352 12.1242 -1.7890 0.9411
7.5768 12.4756 -1.7338 0.9429
4.4555 11.5845 -1.4743 0.9512
3.3126 11.6137 -1.4346 0.9525
2.2173 11.6205 -1.4053 0.9535
0.1148 11.5816 -1.3758 0.9544
-0.9064 11.3922 -1.3575 0.9550
-4.2211 11.6600 -1.4730 0.9513
-11.1007 10.9134 -1.8491 0.9392
-12.8631 8.7674 -1.8491 0.9392
-15.3523 6.8493 -1.9969 0.9345
-16.3628 4.0219 -2.0015 0.9344
-16.8438 -0.4536 -2.0015 0.9344
-13.3923 -10.2257 -2.0015 0.9344
-12.4061 -11.3606 -1.9982 0.9345
