ply
format ascii 1.0
element vertex 1586
property float32 x
property float32 y
property float32 z
property float32 I
end_header
-1.1887 11.6414 1.7927 0.9537
-2.2531 11.6479 1.8175 0.9531
-3.3465 11.6211 1.8526 0.9522
-4.3031 8.7069 1.4878 0.9615
-8.6589 11.6873 2.2283 0.9428
7.1807 11.5900 2.0887 0.9463
3.4243 11.6130 1.8548 0.9522
1.2619 11.6263 1.7915 0.9538
-4.1041 11.6593 1.8936 0.9512
-6.6395 11.6749 2.0575 0.9471
-9.7644 11.6941 2.3339 0.9402
5.0058 11.6033 1.9359 0.9501
3.8216 11.6106 1.8726 0.9517
2.7038 11.6175 1.8273 0.9529
1.6304 11.6241 1.7982 0.9536
-0.4573 11.6369 1.7841 0.9540
-1.5055 11.6433 1.7985 0.9536
-2.5795 11.6500 1.8279 0.9529
-4.8839 11.6641 1.9372 0.9501
-6.1635 11.6720 2.0221 0.9480
-9.1570 11.6904 2.2749 0.9417
-10.9841 11.7016 2.4587 0.9371
6.7588 11.5925 2.0557 0.9471
3.0887 11.6151 1.8412 0.9525
2.0020 11.6218 1.8066 0.9534
-1.1368 11.6411 1.7918 0.9538
-3.3006 11.6544 1.8556 0.9522
-4.4600 11.6615 1.9127 0.9507
-8.5790 11.6868 2.2210 0.9430
-10.3122 11.6975 2.3889 0.9388
-7.8337 -12.9665 2.3208 0.9405
5.8880 11.5979 1.9926 0.9487
3.4799 11.6127 1.8572 0.9521
2.3776 11.6195 1.8169 0.9531
0.2700 11.6324 1.7825 0.9540
-5.2570 11.6664 1.9603 0.9495
-6.5713 11.6745 2.0523 0.9472
-8.0272 11.6834 2.1716 0.9443
-9.6768 11.6936 2.3252 0.9404
7.7632 11.5864 2.1366 0.9451
6.3497 11.5951 2.0252 0.9479
1.6826 11.6237 1.7993 0.9536
-1.4533 11.6430 1.7975 0.9536
-3.6417 11.6565 1.8708 0.9518
-4.8234 11.6637 1.9336 0.9502
-6.0977 11.6716 2.0173 0.9481
-7.4829 11.6552 2.1218 0.9455
-9.0736 11.6899 2.2670 0.9419
-10.8870 11.7010 2.4484 0.9374
6.8272 11.5921 2.0609 0.9470
5.5029 11.6003 1.9669 0.9494
4.2759 11.5833 1.8915 0.9513
3.1435 11.6148 1.8433 0.9525
0.9988 11.6280 1.7879 0.9539
-1.0850 11.6408 1.7910 0.9538
-2.1466 11.6473 1.8143 0.9532
-3.2450 11.6540 1.8533 0.9522
-4.4010 11.6611 1.9094 0.9508
-6.9917 11.6771 2.0850 0.9464
-8.4996 11.6863 2.2137 0.9432
-10.2204 11.6969 2.3796 0.9391
3.5357 11.6124 1.8596 0.9521
1.3656 11.6257 1.7932 0.9537
0.3213 11.6321 1.7827 0.9540
-0.7190 11.6385 1.7864 0.9539
-1.7720 11.6450 1.8045 0.9535
-2.8554 11.6516 1.8378 0.9526
-3.9887 11.6586 1.8877 0.9514
-5.1950 11.6660 1.9564 0.9496
-6.5035 11.6741 2.0472 0.9474
-7.9513 11.6829 2.1649 0.9444
7.8372 11.5859 2.1428 0.9450
6.4160 11.5947 2.0301 0.9478
5.1273 11.6026 1.9433 0.9500
1.7350 11.6234 1.8004 0.9536
0.6853 11.6299 1.7847 0.9540
-0.3545 11.6363 1.7834 0.9540
-4.7631 11.6634 1.9300 0.9503
-8.9910 11.6893 2.2592 0.9421
6.8959 11.5917 2.0663 0.9469
5.5655 11.5999 1.9710 0.9493
2.1076 11.6211 1.8093 0.9533
0.0091 11.6340 1.7823 0.9540
-1.0333 11.6404 1.7903 0.9538
-2.0935 11.6470 1.8128 0.9532
-3.1896 11.6537 1.8509 0.9523
-4.3422 11.6608 1.9062 0.9509
-5.5759 11.6684 1.9811 0.9490
-6.9218 11.6766 2.0795 0.9466
-10.1294 11.6963 2.3704 0.9393
7.3938 11.5886 2.1059 0.9459
6.0168 11.5971 2.0015 0.9485
3.5916 11.6120 1.8620 0.9520
1.4176 11.6254 1.7941 0.9537
0.3717 11.6036 1.7785 0.9541
-0.6675 11.6382 1.7858 0.9539
-1.7195 11.6447 1.8032 0.9535
-2.8009 11.6513 1.8358 0.9527
-3.9312 11.6582 1.8848 0.9514
-5.1334 11.6656 1.9525 0.9497
-7.8758 11.6825 2.1584 0.9446
-9.5034 11.6925 2.3083 0.9408
5.1885 11.6022 1.9470 0.9499
2.8660 11.6165 1.8329 0.9527
0.7368 11.6296 1.7852 0.9539
-0.3031 11.6359 1.7832 0.9540
-1.3491 11.6424 1.7955 0.9537
-4.7030 11.6630 1.9265 0.9504
-5.9667 11.6708 2.0080 0.9483
-7.3450 11.6653 2.1118 0.9457
-10.6949 11.6998 2.4283 0.9379
6.9572 11.5782 2.0693 0.9468
3.2535 11.6141 1.8477 0.9524
2.1606 11.6208 1.8108 0.9533
1.1021 11.6273 1.7892 0.9538
0.0604 11.6337 1.7822 0.9540
-2.0404 11.6466 1.8114 0.9533
-3.1343 11.6534 1.8487 0.9523
-4.2837 11.6604 1.9030 0.9510
-5.5127 11.6680 1.9769 0.9491
7.4655 11.5882 2.1118 0.9457
6.0817 11.5967 2.0060 0.9484
4.8202 11.6045 1.9250 0.9504
3.6477 11.6117 1.8645 0.9519
2.5379 11.6185 1.8219 0.9530
1.4695 11.6251 1.7951 0.9537
0.4238 11.6286 1.7826 0.9540
-0.6160 11.6379 1.7854 0.9539
-2.7466 11.6510 1.8338 0.9527
-9.4178 11.6920 2.2999 0.9411
6.6907 11.5930 1.7430 0.9474
5.3785 11.6010 1.6652 0.9497
1.9494 11.6221 1.5346 0.9536
0.8956 11.6286 1.5188 0.9540
-1.1887 11.6414 1.5238 0.9539
-2.2531 11.6479 1.5449 0.9533
-7.1329 11.6779 1.7819 0.9463
-8.6589 11.6873 1.8941 0.9430
-10.4047 11.6980 2.0387 0.9388
-12.4569 11.7106 2.2264 0.9334
-7.8715 -13.1597 1.9968 0.9400
7.1807 11.5900 1.7754 0.9465
4.5825 11.6059 1.6249 0.9509
3.4243 11.6130 1.5766 0.9523
2.3243 11.6198 1.5431 0.9533
1.2619 11.6263 1.5229 0.9539
-0.8221 11.6391 1.5194 0.9540
-5.3192 11.6668 1.6697 0.9496
-8.1036 11.6839 1.8516 0.9443
-9.7644 11.6941 1.9839 0.9404
-11.6972 11.7060 2.1550 0.9354
6.2836 11.5955 1.7174 0.9482
5.0058 11.6033 1.6456 0.9503
3.8216 11.6106 1.5917 0.9519
2.7038 11.6175 1.5533 0.9530
1.6304 11.6241 1.5285 0.9538
0.5818 11.6172 1.5147 0.9542
-0.4573 11.6369 1.5165 0.9541
-1.5055 11.6433 1.5288 0.9537
-2.5795 11.6500 1.5538 0.9530
-4.8839 11.6641 1.6467 0.9503
-7.5722 11.6806 1.8127 0.9454
-10.9841 11.7016 2.0899 0.9373
-12.0790 -12.2061 2.2362 0.9331
8.2005 11.5560 1.8452 0.9444
6.7588 11.5925 1.7474 0.9473
4.2270 11.6081 1.6087 0.9514
2.0020 11.6218 1.5357 0.9535
-0.0935 11.6347 1.5151 0.9542
-3.3005 11.6544 1.5773 0.9523
-7.0621 11.6775 1.7771 0.9464
-8.5790 11.6868 1.8879 0.9432
-10.3122 11.6975 2.0307 0.9390
-14.8111 11.7251 2.4599 0.9266
3.4799 11.6127 1.5787 0.9523
2.3776 11.6195 1.5444 0.9533
0.2700 11.6324 1.5152 0.9541
-0.7705 11.6388 1.5189 0.9540
-1.8246 11.6453 1.5350 0.9536
-2.9100 11.6520 1.5639 0.9527
-4.0463 11.6590 1.6071 0.9514
-9.6768 11.6936 1.9765 0.9406
-11.5939 11.7053 2.1454 0.9357
6.3497 11.5951 1.7215 0.9481
1.6826 11.6237 1.5294 0.9537
0.6339 11.6302 1.5167 0.9541
-1.4533 11.6430 1.5279 0.9538
-2.5256 11.6496 1.5523 0.9531
-3.6417 11.6565 1.5903 0.9519
-4.8234 11.6637 1.6436 0.9504
-6.0977 11.6716 1.7148 0.9483
-10.8870 11.7010 2.0813 0.9376
-13.0342 11.7142 2.2821 0.9318
-12.1276 -12.1475 2.2353 0.9331
5.5029 11.6003 1.6719 0.9495
4.2759 11.5833 1.6079 0.9514
2.0548 11.6215 1.5368 0.9535
0.9988 11.6280 1.5198 0.9540
-1.0850 11.6408 1.5224 0.9539
-3.2450 11.6540 1.5753 0.9524
-4.4010 11.6611 1.6231 0.9510
-6.9917 11.6771 1.7723 0.9466
-8.4996 11.6863 1.8817 0.9434
-14.6766 11.7243 2.4461 0.9270
3.5357 11.6124 1.5807 0.9522
2.4309 11.6192 1.5458 0.9532
1.3656 11.6257 1.5243 0.9539
0.3213 11.6321 1.5153 0.9541
-5.1950 11.6660 1.6630 0.9498
-6.5035 11.6741 1.7402 0.9475
-9.5898 11.6930 1.9693 0.9408
-11.4559 11.6685 2.1294 0.9362
3.9352 11.6099 1.5963 0.9518
0.6853 11.6299 1.5171 0.9541
-0.3545 11.6363 1.5160 0.9541
-2.4718 11.6493 1.5508 0.9531
-3.5735 11.6179 1.5828 0.9522
-4.7631 11.6634 1.6406 0.9505
6.8959 11.5917 1.7564 0.9470
5.5655 11.5999 1.6754 0.9494
1.0504 11.6276 1.5203 0.9540
-1.0333 11.6404 1.5218 0.9540
-4.3422 11.6608 1.6203 0.9510
-6.9218 11.6766 1.7676 0.9467
-10.1294 11.6963 2.0149 0.9395
-14.5436 11.7235 2.4326 0.9274
7.3938 11.5886 1.7901 0.9461
6.0168 11.5971 1.7013 0.9487
4.7604 11.6048 1.6334 0.9507
1.4176 11.6254 1.5251 0.9539
0.3717 11.6035 1.5118 0.9542
-3.9312 11.6582 1.6021 0.9516
-6.4359 11.6737 1.7359 0.9476
-13.6417 11.7179 2.3418 0.9300
3.9922 11.6096 1.5987 0.9517
0.7368 11.6296 1.5174 0.9541
-4.7030 11.6630 1.6376 0.9505
-7.3450 11.6653 1.7951 0.9459
-8.9088 11.6888 1.9138 0.9424
-12.8037 11.7128 2.2597 0.9324
9.3150 12.7654 2.0578 0.9382
6.9572 11.5782 1.7590 0.9470
3.2535 11.6141 1.5706 0.9525
1.1021 11.6273 1.5209 0.9540
-0.9815 11.6401 1.5212 0.9540
-2.0404 11.6466 1.5397 0.9534
-3.1343 11.6534 1.5714 0.9525
-4.2837 11.6604 1.6177 0.9511
-6.8521 11.6762 1.7630 0.9469
-10.0389 11.6958 2.0071 0.9397
-12.0221 11.7080 2.1853 0.9345
4.8202 11.6045 1.6363 0.9506
0.4238 11.6286 1.5153 0.9541
-1.6670 11.6443 1.5318 0.9537
-3.8740 11.6579 1.5997 0.9517
-7.8008 11.6820 1.8292 0.9449
-9.4177 11.6920 1.9550 0.9412
-13.5197 11.7172 2.3297 0.9304
5.3785 11.6010 1.3731 0.9499
4.1693 11.6085 1.3245 0.9516
1.9494 11.6221 1.2654 0.9537
0.8956 11.6286 1.2524 0.9542
-0.1448 11.6350 1.2495 0.9543
-1.1887 11.6414 1.2566 0.9540
-4.3030 8.7068 1.0429 0.9617
-7.1329 11.6779 1.4694 0.9464
-8.6589 11.6873 1.5619 0.9432
-14.9471 11.7260 2.0400 0.9264
5.8241 11.5983 1.3936 0.9491
4.5825 11.6059 1.3399 0.9510
1.2619 11.6263 1.2558 0.9540
-0.8221 11.6391 1.2529 0.9541
-4.1041 11.6593 1.3273 0.9515
-5.3192 11.6668 1.3769 0.9497
-8.1036 11.6839 1.5269 0.9444
-9.7644 11.6941 1.6359 0.9406
-11.6972 11.7060 1.7770 0.9356
-14.0152 11.7202 1.9619 0.9291
7.6897 11.5868 1.4933 0.9456
6.2836 11.5955 1.4162 0.9483
5.0058 11.6033 1.3570 0.9504
3.8216 11.6106 1.3126 0.9520
2.7038 11.6175 1.2808 0.9531
-0.4573 11.6369 1.2506 0.9542
-4.8839 11.6641 1.3579 0.9504
-7.5722 11.6806 1.4948 0.9455
-13.1512 11.7149 1.8912 0.9316
-15.8095 11.7312 2.1140 0.9239
-12.0780 -12.2051 1.8438 0.9333
6.7588 11.5925 1.4410 0.9474
5.4406 11.6007 1.3759 0.9498
4.2270 11.6081 1.3266 0.9515
2.0020 11.6218 1.2663 0.9537
-0.0935 11.6347 1.2494 0.9543
-1.1368 11.6411 1.2560 0.9540
-2.1998 11.6476 1.2729 0.9534
-4.4600 11.6615 1.3407 0.9510
-4.2631 8.7226 1.0425 0.9617
-7.0621 11.6775 1.4654 0.9466
-8.5790 11.6868 1.5568 0.9433
-12.3466 11.7100 1.8273 0.9338
-14.8111 11.7251 2.0285 0.9268
7.2513 11.5895 1.4680 0.9465
5.8880 11.5979 1.3967 0.9490
4.6416 11.6056 1.3422 0.9510
3.4799 11.6127 1.3018 0.9524
2.3776 11.6195 1.2736 0.9534
1.3137 11.6260 1.2564 0.9540
0.2700 11.6324 1.2494 0.9543
-0.7705 11.6388 1.2525 0.9542
-1.8246 11.6453 1.2658 0.9537
-2.9100 11.6520 1.2896 0.9528
-4.0463 11.6590 1.3252 0.9516
-11.5939 11.7053 1.7691 0.9359
-13.8894 11.7195 1.9515 0.9295
7.7632 11.5864 1.4976 0.9454
6.3497 11.5951 1.4196 0.9482
5.0665 11.6030 1.3595 0.9503
0.6339 11.6302 1.2507 0.9542
-0.4059 11.6366 1.2503 0.9542
-1.4533 11.6430 1.2600 0.9539
-10.8870 11.7010 1.7162 0.9377
-13.0342 11.7142 1.8818 0.9319
4.2759 11.5833 1.3259 0.9515
0.9988 11.6280 1.2532 0.9541
-1.0850 11.6408 1.2554 0.9541
-2.1466 11.6473 1.2718 0.9535
-4.4010 11.6611 1.3384 0.9511
-8.4996 11.6863 1.5517 0.9435
7.3223 11.5891 1.4720 0.9463
2.4309 11.6192 1.2747 0.9534
1.3656 11.6257 1.2570 0.9540
0.3213 11.6321 1.2496 0.9543
-0.7190 11.6385 1.2521 0.9542
-2.8554 11.6516 1.2882 0.9529
-3.9887 11.6586 1.3232 0.9516
-5.1950 11.6660 1.3713 0.9499
-6.5035 11.6741 1.4350 0.9477
-7.9513 11.6829 1.5175 0.9447
-11.4559 11.6685 1.7559 0.9363
7.8372 11.5859 1.5020 0.9453
5.1273 11.6026 1.3621 0.9502
3.9352 11.6099 1.3164 0.9519
1.7350 11.6234 1.2620 0.9538
-3.5735 11.6179 1.3052 0.9523
-4.7631 11.6634 1.3528 0.9506
-15.5192 11.7295 2.0889 0.9247
6.8959 11.5917 1.4483 0.9472
5.5655 11.5999 1.3816 0.9496
2.1076 11.6211 1.2683 0.9536
1.0504 11.6276 1.2537 0.9541
-1.0333 11.6404 1.2549 0.9541
-6.9218 11.6766 1.4576 0.9469
-10.1294 11.6963 1.6615 0.9397
-14.5436 11.7235 2.0059 0.9276
7.3938 11.5886 1.4761 0.9462
6.0168 11.5971 1.4029 0.9488
1.4176 11.6254 1.2576 0.9540
0.3717 11.6035 1.2466 0.9544
-1.7195 11.6447 1.2640 0.9537
-2.8009 11.6513 1.2868 0.9529
-3.9312 11.6582 1.3211 0.9517
-5.1334 11.6656 1.3686 0.9500
-6.4359 11.6737 1.4314 0.9478
-7.8758 11.6825 1.5129 0.9449
6.4828 11.5942 1.4264 0.9480
5.1885 11.6022 1.3648 0.9502
1.7874 11.6231 1.2628 0.9538
0.7368 11.6296 1.2513 0.9542
-0.3031 11.6359 1.2499 0.9543
-5.9667 11.6708 1.4075 0.9486
-7.3450 11.6653 1.4803 0.9461
-10.6949 11.6998 1.7022 0.9382
-15.3717 11.7249 2.0760 0.9252
9.3109 12.7597 1.6962 0.9384
6.9572 11.5782 1.4505 0.9471
5.6284 11.5995 1.3845 0.9495
3.2535 11.6141 1.2952 0.9526
0.0604 11.6337 1.2493 0.9543
-5.5127 11.6680 1.3857 0.9494
-6.8521 11.6762 1.4538 0.9470
-8.3423 11.6854 1.5417 0.9439
-10.0389 11.6958 1.6551 0.9399
-12.0221 11.7080 1.8020 0.9347
-14.4121 11.7227 1.9949 0.9280
1.4695 11.6251 1.2583 0.9540
0.4238 11.6286 1.2495 0.9543
-1.6670 11.6443 1.2631 0.9538
-3.8740 11.6579 1.3192 0.9518
-7.8008 11.6820 1.5084 0.9451
-13.5197 11.7172 1.9211 0.9306
6.6907 11.5930 1.1331 0.9477
3.0340 11.6154 1.0163 0.9530
1.9494 11.6221 0.9976 0.9538
0.8956 11.6286 0.9873 0.9543
-0.1448 11.6330 0.9848 0.9544
-2.2531 11.6479 1.0043 0.9535
-3.3465 11.6211 1.0237 0.9526
-4.5191 11.6619 1.0587 0.9510
-4.3030 8.7067 0.8221 0.9618
-8.6589 11.6873 1.2313 0.9433
-10.4047 11.6980 1.3253 0.9391
-7.8705 -13.1581 1.2979 0.9403
7.1807 11.5900 1.1542 0.9467
5.8240 11.5983 1.0987 0.9492
4.5825 11.6059 1.0563 0.9511
2.3243 11.6198 1.0031 0.9535
0.2186 11.6307 0.9847 0.9544
-2.9647 11.6523 1.0178 0.9529
-4.1041 11.6593 1.0464 0.9516
-5.3192 11.6668 1.0854 0.9498
-6.6395 11.6749 1.1370 0.9475
-9.7644 11.6941 1.2897 0.9407
-14.0152 11.7202 1.5466 0.9293
6.2836 11.5955 1.1165 0.9484
3.8216 11.6106 1.0347 0.9521
0.5818 11.6172 0.9847 0.9544
-0.4573 11.6359 0.9858 0.9543
-1.5055 11.6433 0.9938 0.9540
-4.8839 11.6641 1.0705 0.9505
-6.1635 11.6720 1.1174 0.9484
-7.5722 11.6806 1.1784 0.9457
-13.1513 11.7149 1.4909 0.9317
-15.8095 11.7312 1.6665 0.9240
-12.0765 -12.2036 1.4534 0.9334
5.4406 11.6007 1.0847 0.9499
3.0887 11.6151 1.0174 0.9529
2.0020 11.6218 0.9983 0.9538
-0.0935 11.6326 0.9848 0.9544
-1.1368 11.6411 0.9901 0.9541
-3.3006 11.6544 1.0254 0.9525
-7.0621 11.6775 1.1552 0.9467
-10.3122 11.6975 1.3201 0.9393
-12.3466 11.7100 1.4405 0.9340
-14.8111 11.7251 1.5991 0.9270
2.3776 11.6195 1.0040 0.9535
1.3137 11.6260 0.9904 0.9541
-4.0463 11.6590 1.0447 0.9517
-5.2570 11.6664 1.0832 0.9499
-9.6768 11.6936 1.2849 0.9409
-11.5939 11.7053 1.3947 0.9360
7.7632 11.5864 1.1806 0.9456
5.0665 11.6030 1.0718 0.9504
2.7578 11.6171 1.0108 0.9532
1.6826 11.6237 0.9942 0.9539
0.6338 11.6293 0.9859 0.9543
-0.4058 11.6354 0.9856 0.9543
-3.6417 11.6565 1.0338 0.9522
-6.0977 11.6716 1.1147 0.9485
-15.6636 11.7304 1.6566 0.9245
6.8272 11.5921 1.1388 0.9474
5.5029 11.6003 1.0869 0.9498
4.2759 11.5833 1.0452 0.9516
3.1435 11.6148 1.0186 0.9528
2.0548 11.6215 0.9990 0.9537
0.9988 11.6280 0.9880 0.9542
-0.0422 11.6323 0.9847 0.9544
-1.0850 11.6408 0.9897 0.9542
-2.1466 11.6473 1.0026 0.9536
-3.2450 11.6540 1.0241 0.9526
-4.4010 11.6611 1.0551 0.9512
-8.4996 11.6863 1.2233 0.9436
-10.2204 11.6969 1.3149 0.9395
-12.2374 11.7093 1.4338 0.9343
-14.6766 11.7243 1.5902 0.9274
7.3223 11.5891 1.1605 0.9465
5.9523 11.5975 1.1035 0.9490
4.7009 11.6052 1.0599 0.9510
3.5357 11.6124 1.0276 0.9524
2.4309 11.6192 1.0049 0.9535
0.3213 11.6302 0.9849 0.9544
-3.9887 11.6586 1.0431 0.9517
-5.1950 11.6660 1.0811 0.9500
-6.5035 11.6741 1.1312 0.9478
-7.9513 11.6829 1.1963 0.9448
-11.4559 11.6685 1.3843 0.9365
-13.7648 11.7187 1.5303 0.9300
7.8372 11.5859 1.1841 0.9454
5.1273 11.6026 1.0738 0.9504
3.9352 11.6099 1.0377 0.9520
1.7350 11.6234 0.9949 0.9539
0.6852 11.6292 0.9862 0.9543
-0.3545 11.6349 0.9854 0.9543
-3.5735 11.6179 1.0290 0.9524
-4.7631 11.6634 1.0665 0.9507
-6.0321 11.6712 1.1122 0.9486
-10.7905 11.7004 1.3474 0.9381
-12.9185 11.7135 1.4762 0.9324
-15.5192 11.7295 1.6468 0.9249
6.8959 11.5917 1.1418 0.9473
2.1076 11.6211 0.9998 0.9537
1.0504 11.6276 0.9883 0.9542
-3.1896 11.6537 1.0228 0.9527
-4.3422 11.6608 1.0533 0.9513
-5.5759 11.6684 1.0947 0.9494
-6.9218 11.6766 1.1491 0.9470
-8.4207 11.6858 1.2193 0.9438
-10.1294 11.6963 1.3098 0.9398
-14.5436 11.7235 1.5813 0.9278
7.3938 11.5886 1.1637 0.9463
6.0168 11.5971 1.1060 0.9489
2.4844 11.6188 1.0058 0.9534
-1.7195 11.6447 0.9964 0.9538
-2.8009 11.6513 1.0144 0.9530
-3.9312 11.6582 1.0415 0.9518
-6.4359 11.6737 1.1284 0.9479
-9.5034 11.6925 1.2755 0.9413
3.9922 11.6096 1.0393 0.9519
2.8660 11.6165 1.0129 0.9531
0.7367 11.6292 0.9864 0.9543
-0.3031 11.6344 0.9852 0.9544
-1.3491 11.6424 0.9922 0.9540
-6.7726 8.8860 0.9460 0.9561
-12.8037 11.7128 1.4690 0.9327
-15.3717 11.7249 1.6366 0.9253
9.1936 12.5989 1.3203 0.9393
6.9572 11.5782 1.1435 0.9472
5.6284 11.5995 1.0914 0.9496
3.2535 11.6141 1.0210 0.9527
2.1606 11.6208 1.0006 0.9537
1.1021 11.6273 0.9887 0.9542
0.0604 11.6316 0.9847 0.9544
-3.1343 11.6534 1.0215 0.9527
-5.5127 11.6680 1.0924 0.9495
-6.8521 11.6762 1.1461 0.9471
-8.3423 11.6854 1.2154 0.9440
-10.0389 11.6958 1.3048 0.9400
-12.0221 11.7080 1.4206 0.9349
7.4655 11.5882 1.1669 0.9462
6.0817 11.5967 1.1085 0.9488
0.4238 11.6286 0.9851 0.9544
-1.6670 11.6443 0.9958 0.9539
-5.0720 11.6653 1.0768 0.9502
-6.3687 11.6732 1.1257 0.9480
-7.8008 11.6820 1.1891 0.9452
5.3785 11.6010 0.7929 0.9500
1.9494 11.6221 0.7308 0.9539
-0.1446 11.6185 0.7205 0.9545
-1.1870 11.6251 0.7246 0.9542
-2.2470 11.6164 0.7337 0.9537
-4.3030 8.7067 0.6022 0.9618
-7.1329 11.6779 0.8486 0.9466
-8.6556 11.6829 0.9016 0.9434
-10.3892 11.6805 0.9694 0.9393
-12.4569 11.7106 1.0602 0.9338
-14.9471 11.7260 1.1781 0.9267
-7.8705 -13.1580 0.9508 0.9404
7.6587 12.3615 0.9017 0.9434
5.8241 11.5983 0.8048 0.9493
4.5825 11.6059 0.7738 0.9512
2.3243 11.6198 0.7348 0.9536
0.2185 11.6239 0.7209 0.9545
-1.8722 11.6135 0.7295 0.9539
-2.9570 11.6221 0.7436 0.9531
-4.1041 11.6593 0.7665 0.9517
-6.6395 11.6749 0.8328 0.9476
-8.0996 11.6781 0.8813 0.9446
-11.6972 11.7060 1.0262 0.9358
-14.0152 11.7202 1.1329 0.9294
7.9343 11.9554 0.8898 0.9441
5.0058 11.6033 0.7836 0.9506
3.8216 11.6106 0.7580 0.9522
2.7038 11.6175 0.7397 0.9533
1.6304 11.6241 0.7279 0.9540
0.5818 11.6172 0.7213 0.9545
-0.4566 11.6204 0.7211 0.9545
-1.5033 11.6263 0.7269 0.9541
-2.5727 11.6189 0.7379 0.9534
-7.5697 11.6769 0.8629 0.9458
-9.1545 11.6872 0.9206 0.9422
-10.9841 11.7016 0.9952 0.9377
-12.0745 -12.2015 1.0645 0.9335
6.7588 11.5925 0.8321 0.9476
5.4406 11.6007 0.7945 0.9499
4.2270 11.6081 0.7661 0.9517
3.0887 11.6151 0.7453 0.9530
-3.2922 11.6249 0.7492 0.9527
-4.4600 11.6615 0.7742 0.9512
-4.2630 8.7225 0.6020 0.9618
-8.5756 11.6822 0.8986 0.9436
-10.2978 11.6811 0.9656 0.9395
-14.8111 11.7251 1.1714 0.9271
0.2698 11.6263 0.7211 0.9545
-2.9024 11.6216 0.7428 0.9531
-4.0463 11.6590 0.7653 0.9517
-9.6737 11.6899 0.9409 0.9410
-13.8894 11.7195 1.1269 0.9298
5.0665 11.6030 0.7851 0.9505
2.7578 11.6171 0.7404 0.9533
1.6826 11.6237 0.7283 0.9540
-2.5188 11.6185 0.7372 0.9535
-4.8233 11.6637 0.7827 0.9507
-7.4829 11.6552 0.8589 0.9460
-9.0710 11.6865 0.9174 0.9424
-10.8870 11.7010 0.9911 0.9380
-13.0342 11.7142 1.0867 0.9322
-15.6636 11.7304 1.2135 0.9246
5.5029 11.6003 0.7962 0.9498
4.2759 11.5833 0.7657 0.9517
0.9988 11.6280 0.7237 0.9543
-1.0835 11.6245 0.7240 0.9543
-2.1407 11.6155 0.7324 0.9538
-4.2320 8.7568 0.6031 0.9618
-6.9917 11.6771 0.8440 0.9469
-8.4961 11.6815 0.8957 0.9438
-10.2092 11.6841 0.9621 0.9397
-14.6766 11.7243 1.1648 0.9275
9.6316 12.5962 0.9833 0.9384
7.7372 12.2457 0.8982 0.9436
5.9523 11.5975 0.8084 0.9491
-0.7180 11.6221 0.7221 0.9544
-1.7673 11.6138 0.7285 0.9540
-3.9887 11.6586 0.7641 0.9518
-6.5035 11.6741 0.8287 0.9479
-11.4559 11.6685 1.0140 0.9366
-13.7648 11.7187 1.1210 0.9301
8.0109 11.8428 0.8866 0.9443
6.4160 11.5947 0.8217 0.9483
5.1273 11.6026 0.7866 0.9504
3.9352 11.6099 0.7602 0.9521
0.6853 11.6299 0.7224 0.9544
-0.3540 11.6198 0.7209 0.9545
-2.4652 11.6181 0.7365 0.9535
-15.5192 11.7295 1.2063 0.9250
6.8959 11.5917 0.8364 0.9474
1.0504 11.6276 0.7240 0.9543
-1.0318 11.6241 0.7237 0.9543
-2.0877 11.6151 0.7318 0.9538
-5.5759 11.6684 0.8019 0.9495
-6.9218 11.6766 0.8417 0.9471
-14.5436 11.7235 1.1584 0.9279
9.7195 12.5957 0.9866 0.9382
4.7604 11.6048 0.7778 0.9510
3.5916 11.6120 0.7537 0.9525
2.4844 11.6188 0.7368 0.9535
1.4176 11.6254 0.7262 0.9541
0.3717 11.6036 0.7199 0.9545
-0.6665 11.6218 0.7219 0.9544
-2.7936 11.6207 0.7411 0.9532
-3.9312 11.6582 0.7629 0.9519
-5.1334 11.6656 0.7903 0.9502
-6.4359 11.6737 0.8266 0.9480
-7.8715 11.6761 0.8732 0.9451
-9.4997 11.6879 0.9340 0.9414
-13.6417 11.7179 1.1152 0.9305
5.1885 11.6022 0.7881 0.9503
-0.3027 11.6195 0.7208 0.9545
-1.3472 11.6262 0.7258 0.9542
-2.4116 11.6177 0.7358 0.9536
-4.7030 11.6630 0.7798 0.9509
-7.3450 11.6653 0.8548 0.9463
-6.7701 8.8828 0.6926 0.9562
-10.6910 11.6956 0.9826 0.9385
9.1936 12.5989 0.9672 0.9394
6.9572 11.5782 0.8376 0.9473
5.6284 11.5995 0.7995 0.9496
-0.9801 11.6238 0.7234 0.9543
-3.1263 11.6235 0.7464 0.9529
-8.3386 11.6801 0.8899 0.9441
-12.0221 11.7080 1.0406 0.9350
9.7440 12.5130 0.9834 0.9384
7.8151 12.1308 0.8948 0.9438
3.6477 11.6117 0.7547 0.9524
1.4695 11.6251 0.7266 0.9541
0.4238 11.6286 0.7216 0.9544
-1.6633 11.6187 0.7278 0.9541
-2.7394 11.6203 0.7403 0.9533
-3.8740 11.6579 0.7618 0.9520
-6.3687 11.6732 0.8246 0.9481
-7.7964 11.6755 0.8706 0.9453
-9.4138 11.6871 0.9306 0.9416
4.1693 11.6085 0.4864 0.9518
1.9494 11.6221 0.4647 0.9539
0.8957 11.6286 0.4599 0.9544
-1.1852 11.6075 0.4601 0.9544
-2.2399 11.5801 0.4651 0.9539
-4.5191 11.6619 0.4932 0.9512
-4.3029 8.7066 0.3829 0.9619
-7.1329 11.6779 0.5396 0.9467
-8.6392 11.6608 0.5722 0.9436
-10.3622 11.6502 0.6148 0.9395
-12.4569 11.7106 0.6742 0.9338
-14.9471 11.7260 0.7491 0.9268
7.6585 12.3612 0.5734 0.9435
4.5825 11.6059 0.4920 0.9513
3.4243 11.6130 0.4774 0.9527
0.2185 11.6239 0.4584 0.9545
-1.8686 11.5913 0.4630 0.9541
-4.1041 11.6593 0.4874 0.9517
-8.0846 11.6565 0.5594 0.9448
-9.7276 11.6500 0.5985 0.9411
-11.6972 11.7060 0.6525 0.9359
7.9409 11.9652 0.5662 0.9441
6.2836 11.5955 0.5200 0.9486
3.8216 11.6106 0.4820 0.9522
-0.4560 11.6029 0.4579 0.9546
-1.5010 11.6086 0.4616 0.9542
-6.1635 11.6720 0.5205 0.9485
-10.9412 11.6559 0.6304 0.9380
-13.1513 11.7149 0.6945 0.9319
-15.8095 11.7312 0.7763 0.9242
-12.0724 -12.1994 0.6768 0.9336
8.2005 11.5560 0.5587 0.9449
5.4406 11.6007 0.5052 0.9500
3.0887 11.6151 0.4739 0.9530
0.9472 11.6283 0.4600 0.9544
-0.0933 11.6093 0.4578 0.9546
-1.1335 11.6072 0.4599 0.9544
-2.1870 11.5798 0.4647 0.9539
-12.3466 11.7100 0.6710 0.9341
7.6988 12.3047 0.5723 0.9436
4.6416 11.6056 0.4929 0.9512
3.4799 11.6127 0.4780 0.9526
0.2698 11.6263 0.4586 0.9545
-2.8932 11.5849 0.4708 0.9533
-8.0086 11.6563 0.5576 0.9450
-11.5939 11.7053 0.6496 0.9362
7.9802 11.9101 0.5653 0.9442
6.3497 11.5951 0.5213 0.9485
0.6339 11.6302 0.4593 0.9544
-3.6417 11.6565 0.4815 0.9523
-9.0536 11.6640 0.5822 0.9426
-15.6635 11.7304 0.7716 0.9247
9.2510 12.9153 0.6264 0.9384
6.8272 11.5921 0.5305 0.9476
3.1435 11.6148 0.4745 0.9530
2.0548 11.6215 0.4654 0.9539
0.9988 11.6280 0.4602 0.9544
-3.2265 11.5875 0.4743 0.9530
-4.4010 11.6611 0.4915 0.9513
-4.2320 8.7567 0.3835 0.9618
-6.9917 11.6771 0.5367 0.9470
-8.4801 11.6596 0.5685 0.9439
-10.1781 11.6484 0.6099 0.9400
-12.2374 11.7093 0.6678 0.9344
7.7389 12.2484 0.5713 0.9437
5.9523 11.5975 0.5140 0.9492
4.7009 11.6052 0.4937 0.9511
3.5357 11.6124 0.4786 0.9526
2.4309 11.6192 0.4681 0.9536
0.3212 11.6287 0.4587 0.9545
-0.7169 11.6045 0.4584 0.9545
-5.1950 11.6660 0.5036 0.9502
-6.5035 11.6741 0.5269 0.9479
-7.9355 11.6597 0.5561 0.9451
-13.7648 11.7187 0.7128 0.9302
3.9352 11.6099 0.4834 0.9521
2.8118 11.6168 0.4713 0.9533
1.7350 11.6234 0.4634 0.9540
-0.3535 11.6022 0.4577 0.9546
-2.4575 11.5817 0.4668 0.9537
-10.7477 11.6540 0.6251 0.9385
-12.9185 11.7135 0.6876 0.9326
-15.5192 11.7295 0.7671 0.9251
5.5655 11.5999 0.5073 0.9498
1.0504 11.6276 0.4604 0.9543
-1.0302 11.6065 0.4595 0.9544
-3.1714 11.5870 0.4737 0.9530
-4.3422 11.6608 0.4906 0.9514
-5.5759 11.6684 0.5099 0.9495
-6.9218 11.6766 0.5352 0.9471
-8.4013 11.6589 0.5666 0.9441
-12.1292 11.7086 0.6647 0.9347
3.5916 11.6120 0.4793 0.9525
2.4844 11.6188 0.4685 0.9536
1.4176 11.6254 0.4618 0.9542
0.3717 11.6035 0.4578 0.9546
-0.6655 11.6042 0.4583 0.9545
-1.7127 11.5987 0.4623 0.9542
-2.7848 11.5841 0.4698 0.9534
-3.9312 11.6582 0.4851 0.9519
-5.1334 11.6656 0.5026 0.9503
-6.4359 11.6737 0.5256 0.9480
-13.6417 11.7179 0.7091 0.9305
8.0584 11.8005 0.5634 0.9444
6.4828 11.5942 0.5238 0.9482
5.1885 11.6022 0.5011 0.9504
1.7874 11.6231 0.4637 0.9540
-0.3022 11.6019 0.4576 0.9546
-5.9667 11.6708 0.5168 0.9489
-7.3450 11.6653 0.5436 0.9463
-6.7677 8.8796 0.4402 0.9563
-10.6521 11.6531 0.6225 0.9388
-12.8037 11.7128 0.6842 0.9329
-15.3717 11.7249 0.7623 0.9255
3.2535 11.6141 0.4756 0.9529
1.1021 11.6273 0.4605 0.9543
0.0603 11.6165 0.4581 0.9546
-2.0294 11.5837 0.4637 0.9540
-4.2837 11.6604 0.4898 0.9515
-8.3230 11.6583 0.5648 0.9443
-9.9967 11.6467 0.6052 0.9404
7.8187 12.1365 0.5693 0.9438
4.8202 11.6045 0.4955 0.9509
3.6477 11.6117 0.4799 0.9524
2.5379 11.6185 0.4689 0.9535
0.4238 11.6286 0.4588 0.9545
-0.6142 11.6039 0.4582 0.9545
-3.8740 11.6579 0.4844 0.9520
-9.3962 11.6652 0.5906 0.9418
-13.5197 11.7172 0.7054 0.9309
6.6907 11.5930 0.2261 0.9479
1.9494 11.6221 0.1991 0.9539
-2.2353 11.5563 0.1988 0.9540
-3.3265 11.5515 0.2031 0.9530
-4.5191 11.6619 0.2113 0.9512
-4.3029 8.7066 0.1640 0.9619
-8.6230 11.6388 0.2447 0.9437
-10.3198 11.6025 0.2623 0.9398
-12.4569 11.7106 0.2888 0.9339
-7.8704 -13.1578 0.2590 0.9405
4.5825 11.6059 0.2108 0.9513
2.3243 11.6198 0.2002 0.9537
0.2185 11.6239 0.1964 0.9546
-1.8658 11.5737 0.1980 0.9542
-4.1041 11.6593 0.2088 0.9518
-6.6395 11.6749 0.2269 0.9477
-8.0821 11.6528 0.2395 0.9448
7.9409 11.9652 0.2426 0.9442
6.2836 11.5955 0.2228 0.9486
5.0058 11.6033 0.2135 0.9507
3.8216 11.6106 0.2065 0.9523
2.7038 11.6175 0.2015 0.9534
-0.4555 11.5923 0.1960 0.9546
-1.4988 11.5911 0.1974 0.9543
-3.6983 11.6568 0.2066 0.9523
-4.8839 11.6641 0.2136 0.9507
-6.1635 11.6720 0.2230 0.9486
-10.8953 11.6069 0.2689 0.9383
-13.1512 11.7149 0.2975 0.9320
-15.8095 11.7312 0.3325 0.9243
-12.0703 -12.1973 0.2899 0.9337
8.2005 11.5560 0.2394 0.9449
3.0887 11.6151 0.2030 0.9531
2.0020 11.6218 0.1992 0.9539
-1.1318 11.5896 0.1967 0.9545
-2.1830 11.5588 0.1987 0.9540
-3.2713 11.5512 0.2028 0.9531
-4.4600 11.6615 0.2109 0.9513
-8.5433 11.6383 0.2439 0.9439
-10.2296 11.6037 0.2613 0.9400
-12.3466 11.7100 0.2874 0.9342
7.6988 12.3047 0.2452 0.9436
4.6416 11.6056 0.2111 0.9512
3.4799 11.6127 0.2048 0.9527
2.3776 11.6195 0.2003 0.9537
1.3137 11.6260 0.1976 0.9543
0.2698 11.6263 0.1964 0.9545
-1.8138 11.5762 0.1979 0.9542
-2.8841 11.5486 0.2011 0.9535
-4.0463 11.6590 0.2085 0.9518
-6.5713 11.6745 0.2263 0.9478
-8.0086 11.6563 0.2389 0.9450
-9.6257 11.6319 0.2550 0.9414
7.9802 11.9101 0.2422 0.9443
5.0665 11.6030 0.2139 0.9506
2.7578 11.6171 0.2017 0.9534
1.6826 11.6237 0.1984 0.9541
-0.4044 11.5947 0.1960 0.9546
-1.4469 11.5916 0.1973 0.9543
-2.5031 11.5460 0.1996 0.9538
-3.6417 11.6565 0.2063 0.9523
-6.0977 11.6716 0.2224 0.9487
-9.0362 11.6417 0.2489 0.9427
-10.7987 11.6062 0.2678 0.9385
-12.1206 -12.1405 0.2898 0.9337
5.5029 11.6003 0.2169 0.9499
3.1435 11.6148 0.2033 0.9530
2.0548 11.6215 0.1994 0.9539
0.9988 11.6280 0.1971 0.9544
-0.0421 11.6117 0.1961 0.9546
-1.0802 11.5893 0.1966 0.9545
-2.1307 11.5612 0.1986 0.9541
-3.2163 11.5508 0.2025 0.9532
-4.2320 8.7567 0.1643 0.9618
-8.4642 11.6377 0.2431 0.9441
-10.1425 11.6078 0.2604 0.9402
-14.6766 11.7243 0.3173 0.9276
4.7009 11.6052 0.2115 0.9511
3.5357 11.6124 0.2050 0.9526
-0.7158 11.5870 0.1961 0.9546
-2.8300 11.5482 0.2008 0.9535
-6.5035 11.6741 0.2257 0.9479
-7.9355 11.6597 0.2382 0.9451
-9.5428 11.6358 0.2542 0.9416
-13.7648 11.7187 0.3054 0.9302
8.0193 11.8552 0.2418 0.9443
5.1273 11.6026 0.2143 0.9505
3.9352 11.6099 0.2071 0.9521
1.7350 11.6234 0.1985 0.9541
-0.3533 11.5971 0.1960 0.9546
-1.3950 11.5912 0.1972 0.9544
-4.7631 11.6634 0.2128 0.9508
-6.0321 11.6712 0.2219 0.9488
-10.7029 11.6054 0.2667 0.9388
-12.9185 11.7135 0.2946 0.9326
5.5655 11.5999 0.2173 0.9498
3.1984 11.6144 0.2035 0.9529
-2.0785 11.5637 0.1985 0.9541
-3.1614 11.5504 0.2023 0.9532
-5.5759 11.6684 0.2184 0.9496
-12.1292 11.7086 0.2848 0.9348
-14.5436 11.7235 0.3155 0.9280
3.5916 11.6120 0.2053 0.9525
2.4844 11.6188 0.2007 0.9536
1.4176 11.6254 0.1978 0.9542
0.3717 11.6036 0.1961 0.9546
-2.7760 11.5478 0.2006 0.9536
-3.9312 11.6582 0.2078 0.9520
-5.1334 11.6656 0.2153 0.9503
-6.4359 11.6737 0.2252 0.9481
6.4828 11.5942 0.2244 0.9482
5.1885 11.6022 0.2147 0.9504
0.7368 11.6296 0.1968 0.9545
-1.3431 11.5909 0.1971 0.9544
-4.7030 11.6630 0.2124 0.9509
-5.9667 11.6708 0.2214 0.9489
-10.6079 11.6047 0.2656 0.9390
6.9572 11.5782 0.2282 0.9474
5.6284 11.5995 0.2178 0.9497
3.2535 11.6141 0.2037 0.9529
0.0603 11.6165 0.1962 0.9546
-2.0263 11.5661 0.1983 0.9541
-3.1065 11.5500 0.2020 0.9533
-4.2837 11.6604 0.2098 0.9515
-5.5127 11.6680 0.2180 0.9497
-6.8521 11.6762 0.2287 0.9473
-8.3114 11.6421 0.2416 0.9444
-9.9702 11.6158 0.2586 0.9406
7.8187 12.1365 0.2439 0.9439
4.8202 11.6045 0.2123 0.9510
3.6477 11.6117 0.2056 0.9525
1.4695 11.6251 0.1979 0.9542
-0.6133 11.5863 0.1960 0.9546
-1.6583 11.5836 0.1977 0.9543
-3.8740 11.6579 0.2075 0.9520
-6.3687 11.6732 0.2246 0.9482
-7.7904 11.6665 0.2370 0.9454
-11.1985 11.6093 0.2725 0.9375
-13.5197 11.7172 0.3022 0.9309
6.6907 11.5930 -0.0754 0.9479
4.1693 11.6085 -0.0694 0.9519
3.0340 11.6154 -0.0676 0.9531
0.8956 11.6286 -0.0657 0.9544
-1.1817 11.5724 -0.0655 0.9545
-2.2319 11.5387 -0.0662 0.9541
-4.3029 8.7066 -0.0547 0.9619
-7.1329 11.6779 -0.0770 0.9467
-12.4569 11.7106 -0.0963 0.9339
-14.9471 11.7260 -0.1070 0.9268
7.6585 12.3612 -0.0819 0.9435
5.8240 11.5983 -0.0731 0.9494
4.5825 11.6059 -0.0703 0.9513
-0.8176 11.5753 -0.0653 0.9546
-2.9292 11.5127 -0.0669 0.9536
-6.6395 11.6749 -0.0756 0.9477
-8.0821 11.6528 -0.0798 0.9449
-11.6972 11.7060 -0.0932 0.9359
7.9409 11.9652 -0.0809 0.9442
6.2836 11.5955 -0.0743 0.9486
5.0058 11.6033 -0.0711 0.9507
3.8216 11.6106 -0.0688 0.9523
2.7038 11.6175 -0.0672 0.9534
1.6304 11.6241 -0.0661 0.9541
-0.4555 11.5923 -0.0653 0.9547
-1.4965 11.5736 -0.0657 0.9544
-2.5515 11.5236 -0.0665 0.9539
-3.6983 11.6568 -0.0689 0.9523
-4.8839 11.6641 -0.0712 0.9507
-6.1635 11.6720 -0.0743 0.9486
-15.8095 11.7312 -0.1108 0.9243
-12.0683 -12.1952 -0.0966 0.9337
6.7588 11.5925 -0.0756 0.9477
4.2270 11.6081 -0.0696 0.9518
2.0020 11.6218 -0.0664 0.9539
-0.0933 11.6093 -0.0654 0.9546
-1.1301 11.5721 -0.0655 0.9546
-2.1797 11.5412 -0.0661 0.9541
-4.4600 11.6615 -0.0703 0.9513
-4.2630 8.7223 -0.0547 0.9619
-7.0621 11.6775 -0.0768 0.9469
-8.5383 11.6314 -0.0812 0.9439
-10.2099 11.5814 -0.0869 0.9401
-14.8111 11.7251 -0.1064 0.9272
2.3776 11.6195 -0.0668 0.9537
1.3137 11.6260 -0.0659 0.9543
-0.7665 11.5777 -0.0653 0.9546
-1.8111 11.5587 -0.0659 0.9543
-2.8751 11.5124 -0.0668 0.9536
-5.2570 11.6664 -0.0720 0.9501
-6.5713 11.6745 -0.0754 0.9478
-8.0086 11.6563 -0.0796 0.9450
-11.5939 11.7053 -0.0928 0.9362
3.8783 11.6103 -0.0689 0.9522
2.7578 11.6171 -0.0672 0.9534
-0.4044 11.5947 -0.0653 0.9547
-2.4988 11.5261 -0.0664 0.9539
-4.8234 11.6637 -0.0711 0.9508
-7.4829 11.6552 -0.0780 0.9461
-15.6636 11.7304 -0.1102 0.9247
-12.1189 -12.1389 -0.0966 0.9337
9.2778 12.9527 -0.0897 0.9383
6.8272 11.5921 -0.0757 0.9476
3.1435 11.6148 -0.0677 0.9530
-1.0786 11.5718 -0.0654 0.9546
-2.1275 11.5437 -0.0661 0.9541
-3.2061 11.5144 -0.0673 0.9533
-4.2320 8.7566 -0.0548 0.9618
-8.4622 11.6350 -0.0810 0.9441
-12.2374 11.7093 -0.0954 0.9345
3.5357 11.6124 -0.0683 0.9526
1.3656 11.6257 -0.0659 0.9543
0.3212 11.6287 -0.0655 0.9545
-0.7154 11.5801 -0.0653 0.9547
-1.7593 11.5612 -0.0658 0.9543
-2.8212 11.5121 -0.0667 0.9537
-3.9887 11.6586 -0.0694 0.9519
-6.5035 11.6741 -0.0752 0.9479
-9.5250 11.6140 -0.0846 0.9417
8.0193 11.8552 -0.0806 0.9444
6.4160 11.5947 -0.0746 0.9484
5.1273 11.6026 -0.0714 0.9505
2.8118 11.6168 -0.0673 0.9533
1.7350 11.6234 -0.0662 0.9541
-0.3533 11.5971 -0.0653 0.9546
-1.3928 11.5737 -0.0656 0.9544
-2.4462 11.5286 -0.0664 0.9540
-3.5735 11.6179 -0.0684 0.9525
6.8959 11.5917 -0.0759 0.9475
5.5655 11.5999 -0.0724 0.9498
3.1984 11.6144 -0.0678 0.9530
2.1076 11.6211 -0.0665 0.9539
-3.1514 11.5141 -0.0672 0.9534
-4.3422 11.6608 -0.0701 0.9514
-5.5759 11.6684 -0.0728 0.9496
-10.0370 11.5896 -0.0863 0.9405
-12.1292 11.7086 -0.0949 0.9348
7.7789 12.1923 -0.0814 0.9438
4.7604 11.6048 -0.0706 0.9511
3.5916 11.6120 -0.0684 0.9525
0.3717 11.6036 -0.0654 0.9546
-1.7075 11.5636 -0.0658 0.9543
-2.7677 11.5133 -0.0667 0.9537
-5.1334 11.6656 -0.0718 0.9503
-6.4359 11.6737 -0.0751 0.9481
-9.4428 11.6179 -0.0843 0.9419
-13.6417 11.7179 -0.1013 0.9306
8.0584 11.8005 -0.0805 0.9444
6.4828 11.5942 -0.0748 0.9483
2.8661 11.6165 -0.0674 0.9533
1.7873 11.6231 -0.0662 0.9540
0.7368 11.6296 -0.0656 0.9545
-0.3022 11.5995 -0.0653 0.9546
-4.7030 11.6630 -0.0708 0.9509
-5.9667 11.6708 -0.0738 0.9489
-6.7629 8.8732 -0.0628 0.9564
-10.5709 11.5642 -0.0882 0.9393
2.1606 11.6208 -0.0665 0.9538
1.1021 11.6273 -0.0658 0.9544
-5.5127 11.6680 -0.0727 0.9497
-6.8521 11.6762 -0.0762 0.9473
-8.3114 11.6421 -0.0805 0.9444
-9.9513 11.5937 -0.0860 0.9407
-12.0221 11.7080 -0.0945 0.9351
-14.4122 11.7227 -0.1046 0.9284
7.8187 12.1365 -0.0813 0.9439
3.6477 11.6117 -0.0685 0.9525
2.5379 11.6185 -0.0670 0.9535
1.4695 11.6251 -0.0660 0.9542
0.4238 11.6286 -0.0655 0.9545
-0.6132 11.5849 -0.0653 0.9547
-1.6558 11.5661 -0.0658 0.9543
-7.7904 11.6665 -0.0790 0.9454
-9.3609 11.6214 -0.0840 0.9421
-11.1511 11.5601 -0.0904 0.9378
6.6907 11.5930 -0.3769 0.9478
4.1693 11.6085 -0.3473 0.9518
3.0340 11.6154 -0.3380 0.9531
1.9494 11.6221 -0.3318 0.9539
0.8957 11.6286 -0.3284 0.9544
-0.1444 11.6069 -0.3268 0.9546
-1.1802 11.5583 -0.3271 0.9546
-2.2286 11.5212 -0.3304 0.9541
-3.3055 11.4788 -0.3364 0.9533
-4.3029 8.7065 -0.2735 0.9619
-8.6148 11.6278 -0.4075 0.9437
-14.9471 11.7260 -0.5349 0.9268
7.6585 12.3612 -0.4095 0.9435
5.8241 11.5983 -0.3654 0.9494
4.5825 11.6059 -0.3513 0.9513
3.4243 11.6130 -0.3409 0.9527
2.3243 11.6198 -0.3337 0.9537
0.2185 11.6239 -0.3274 0.9545
-2.9229 11.4881 -0.3338 0.9537
-9.6727 11.5843 -0.4249 0.9414
-11.6972 11.7060 -0.4660 0.9359
-14.0152 11.7202 -0.5144 0.9295
3.8216 11.6106 -0.3442 0.9523
2.7038 11.6175 -0.3359 0.9534
0.5818 11.6172 -0.3275 0.9545
-0.4555 11.5923 -0.3267 0.9546
-4.8839 11.6641 -0.3561 0.9507
-6.1635 11.6720 -0.3717 0.9486
-9.0905 11.6055 -0.4151 0.9427
-10.8216 11.5284 -0.4452 0.9387
-13.1513 11.7149 -0.4959 0.9319
-15.8095 11.7312 -0.5543 0.9242
-12.0662 -12.1932 -0.4830 0.9337
8.2005 11.5560 -0.3990 0.9449
5.4406 11.6007 -0.3608 0.9500
4.2270 11.6081 -0.3479 0.9518
3.0887 11.6151 -0.3384 0.9530
0.9472 11.6283 -0.3285 0.9544
-1.1290 11.5607 -0.3271 0.9546
-2.1764 11.5237 -0.3302 0.9542
-4.4600 11.6615 -0.3516 0.9513
-4.2629 8.7223 -0.2734 0.9619
-7.0621 11.6775 -0.3843 0.9469
-10.1903 11.5591 -0.4339 0.9402
-12.3466 11.7100 -0.4791 0.9342
8.9477 11.8093 -0.4172 0.9424
7.6988 12.3047 -0.4087 0.9436
3.4799 11.6127 -0.3414 0.9526
2.3776 11.6195 -0.3340 0.9536
-0.7665 11.5777 -0.3267 0.9546
-4.0463 11.6590 -0.3475 0.9518
-5.2570 11.6664 -0.3603 0.9501
-8.0086 11.6563 -0.3982 0.9450
-9.5896 11.5883 -0.4235 0.9416
3.8783 11.6103 -0.3447 0.9522
1.6826 11.6237 -0.3307 0.9541
0.6339 11.6302 -0.3280 0.9545
-0.4044 11.5947 -0.3267 0.9546
-1.4425 11.5565 -0.3279 0.9545
-2.4950 11.5085 -0.3316 0.9540
-3.6417 11.6565 -0.3439 0.9523
-4.8233 11.6637 -0.3554 0.9507
-6.0977 11.6716 -0.3708 0.9487
-7.4829 11.6552 -0.3900 0.9461
-15.6636 11.7304 -0.5510 0.9247
-12.1172 -12.1372 -0.4829 0.9337
9.2778 12.9527 -0.4486 0.9382
5.5029 11.6003 -0.3615 0.9499
4.2759 11.5833 -0.3477 0.9518
2.0548 11.6215 -0.3323 0.9539
0.9988 11.6280 -0.3286 0.9544
-0.0421 11.6117 -0.3270 0.9546
-2.1243 11.5262 -0.3300 0.9542
-8.4622 11.6350 -0.4051 0.9441
-10.1037 11.5633 -0.4324 0.9404
-14.6766 11.7243 -0.5289 0.9276
8.9768 11.7399 -0.4161 0.9426
4.7009 11.6052 -0.3526 0.9511
3.5357 11.6124 -0.3418 0.9526
2.4309 11.6192 -0.3343 0.9536
1.3656 11.6257 -0.3296 0.9542
-1.7566 11.5437 -0.3288 0.9543
-5.1950 11.6660 -0.3596 0.9502
-6.5035 11.6741 -0.3763 0.9479
-7.9355 11.6597 -0.3971 0.9451
-9.5072 11.5923 -0.4221 0.9418
-11.4559 11.6685 -0.4604 0.9367
0.6852 11.6299 -0.3280 0.9545
-1.3907 11.5562 -0.3277 0.9545
-3.5735 11.6179 -0.3423 0.9525
-4.7631 11.6634 -0.3547 0.9508
-6.0321 11.6712 -0.3699 0.9488
-12.9185 11.7135 -0.4910 0.9326
-15.5192 11.7295 -0.5478 0.9251
6.8959 11.5917 -0.3798 0.9475
5.5655 11.5999 -0.3623 0.9498
1.0504 11.6276 -0.3287 0.9544
-1.0266 11.5655 -0.3269 0.9546
-2.0722 11.5287 -0.3298 0.9542
-3.1415 11.4779 -0.3351 0.9535
-4.3422 11.6608 -0.3504 0.9514
-8.3866 11.6385 -0.4039 0.9442
-10.0178 11.5675 -0.4309 0.9406
7.7789 12.1923 -0.4072 0.9438
6.0168 11.5971 -0.3679 0.9491
2.4844 11.6188 -0.3346 0.9536
1.4176 11.6254 -0.3298 0.9542
0.3717 11.6036 -0.3269 0.9546
-1.7049 11.5462 -0.3286 0.9544
-6.4359 11.6737 -0.3753 0.9481
-7.8628 11.6631 -0.3961 0.9453
-9.4252 11.5963 -0.4208 0.9420
-11.2027 11.5117 -0.4523 0.9377
-13.6417 11.7179 -0.5064 0.9306
5.1885 11.6022 -0.3579 0.9504
2.8661 11.6165 -0.3369 0.9532
1.7873 11.6231 -0.3311 0.9540
-0.3022 11.5995 -0.3267 0.9546
-1.3391 11.5559 -0.3276 0.9545
-2.3900 11.5135 -0.3311 0.9540
-4.7030 11.6630 -0.3541 0.9509
-7.3450 11.6653 -0.3882 0.9463
-12.8037 11.7128 -0.4886 0.9329
-15.3717 11.7249 -0.5444 0.9256
6.9572 11.5782 -0.3803 0.9474
5.6284 11.5995 -0.3630 0.9497
3.2535 11.6141 -0.3396 0.9529
1.1021 11.6273 -0.3289 0.9543
0.0603 11.6165 -0.3271 0.9546
-2.0202 11.5312 -0.3296 0.9542
-9.9323 11.5717 -0.4294 0.9408
-12.0221 11.7080 -0.4725 0.9351
9.1307 11.7255 -0.4185 0.9423
7.8187 12.1365 -0.4065 0.9439
6.0817 11.5967 -0.3687 0.9489
3.6477 11.6117 -0.3427 0.9525
1.4695 11.6251 -0.3299 0.9542
0.4238 11.6286 -0.3277 0.9545
-1.6533 11.5486 -0.3285 0.9544
-2.7106 11.4982 -0.3326 0.9538
-3.8740 11.6579 -0.3459 0.9520
-6.3687 11.6732 -0.3744 0.9482
-7.7904 11.6665 -0.3950 0.9454
-9.3428 11.5989 -0.4194 0.9421
-13.5197 11.7172 -0.5038 0.9309
5.3785 11.6010 -0.6485 0.9501
1.9494 11.6221 -0.5976 0.9539
0.8956 11.6286 -0.5915 0.9544
-0.1443 11.5923 -0.5879 0.9546
-1.1785 11.5419 -0.5884 0.9546
-2.2225 11.4899 -0.5935 0.9542
-4.5192 11.6619 -0.6343 0.9511
-4.3028 8.7065 -0.4925 0.9619
-10.2179 11.4880 -0.7797 0.9403
-14.9471 11.7260 -0.9635 0.9267
12.4975 11.6001 -0.8647 0.9340
10.4430 11.5919 -0.7913 0.9394
8.9338 11.8995 -0.7546 0.9421
7.6585 12.3612 -0.7375 0.9434
5.8240 11.5983 -0.6582 0.9493
4.5825 11.6059 -0.6328 0.9513
1.2619 11.6263 -0.5931 0.9542
-0.8165 11.5597 -0.5877 0.9546
-2.9144 11.4548 -0.5994 0.9538
-6.6395 11.6749 -0.6811 0.9476
-11.6972 11.7060 -0.8392 0.9359
-14.0152 11.7202 -0.9265 0.9294
9.2809 11.5894 -0.7530 0.9423
7.9409 11.9652 -0.7283 0.9441
6.2836 11.5955 -0.6688 0.9485
5.0058 11.6033 -0.6409 0.9506
-2.5405 11.4738 -0.5960 0.9540
-4.8839 11.6641 -0.6413 0.9506
-13.1513 11.7149 -0.8932 0.9319
-15.8095 11.7312 -0.9984 0.9242
-12.0646 -12.1915 -0.8698 0.9336
11.8265 11.5833 -0.8395 0.9358
8.2005 11.5560 -0.7186 0.9448
3.0887 11.6151 -0.6095 0.9530
-0.0931 11.5948 -0.5880 0.9546
-3.2362 11.4271 -0.6023 0.9535
-4.4600 11.6615 -0.6332 0.9512
-8.5033 11.5837 -0.7287 0.9441
-12.3466 11.7100 -0.8630 0.9341
12.6077 11.5995 -0.8688 0.9337
7.6988 12.3047 -0.7361 0.9435
5.8880 11.5979 -0.6596 0.9492
4.6416 11.6056 -0.6339 0.9512
3.4799 11.6127 -0.6148 0.9526
1.3137 11.6260 -0.5934 0.9542
-1.8036 11.5109 -0.5909 0.9544
-2.8614 11.4575 -0.5989 0.9538
-4.0463 11.6590 -0.6259 0.9518
-6.5713 11.6745 -0.6794 0.9478
-9.5382 11.5261 -0.7587 0.9418
-11.2152 11.3230 -0.8082 0.9382
9.3648 11.5891 -0.7556 0.9421
5.0665 11.6030 -0.6421 0.9506
2.7578 11.6171 -0.6055 0.9533
1.6826 11.6237 -0.5956 0.9540
0.6339 11.6302 -0.5907 0.9544
-3.6417 11.6565 -0.6193 0.9523
-4.8234 11.6637 -0.6401 0.9507
-7.4829 11.6552 -0.7024 0.9460
-8.9711 11.5578 -0.7420 0.9431
-10.6653 11.4628 -0.7940 0.9392
-15.6635 11.7304 -0.9924 0.9246
9.9830 11.5938 -0.7759 0.9406
6.8272 11.5921 -0.6823 0.9475
4.2759 11.5833 -0.6262 0.9518
3.1435 11.6148 -0.6102 0.9530
0.9988 11.6280 -0.5919 0.9543
-0.0421 11.5972 -0.5881 0.9546
-1.0762 11.5469 -0.5881 0.9546
-2.1185 11.4951 -0.5928 0.9543
-4.4010 11.6611 -0.6321 0.9513
-6.9917 11.6771 -0.6902 0.9469
-8.4280 11.5879 -0.7267 0.9442
-10.0463 11.4977 -0.7743 0.9407
-14.6766 11.7243 -0.9526 0.9275
7.7389 12.2484 -0.7348 0.9436
4.7009 11.6052 -0.6350 0.9511
3.5357 11.6124 -0.6156 0.9525
2.4309 11.6192 -0.6020 0.9536
1.3656 11.6257 -0.5936 0.9542
-3.9887 11.6586 -0.6249 0.9518
-6.5035 11.6741 -0.6777 0.9479
-7.9062 11.6167 -0.7126 0.9453
-13.7648 11.7187 -0.9168 0.9302
9.4551 11.5960 -0.7588 0.9418
6.4160 11.5947 -0.6720 0.9483
3.9352 11.6099 -0.6217 0.9521
0.6853 11.6299 -0.5908 0.9544
-1.3878 11.5316 -0.5890 0.9545
-4.7631 11.6634 -0.6389 0.9508
-10.5760 11.4678 -0.7911 0.9394
-12.9185 11.7135 -0.8844 0.9325
12.0428 11.5889 -0.8476 0.9353
10.0720 11.5934 -0.7788 0.9403
6.8959 11.5917 -0.6840 0.9474
2.1076 11.6211 -0.5990 0.9538
-4.3422 11.6608 -0.6310 0.9514
-5.5759 11.6684 -0.6558 0.9495
-6.9218 11.6766 -0.6884 0.9471
-9.9614 11.5024 -0.7717 0.9409
-14.5436 11.7235 -0.9474 0.9279
8.9796 11.6368 -0.7454 0.9428
6.0168 11.5971 -0.6626 0.9490
4.7604 11.6048 -0.6361 0.9510
3.5916 11.6120 -0.6164 0.9525
2.4844 11.6188 -0.6026 0.9535
-1.7005 11.5160 -0.5904 0.9544
-3.9312 11.6582 -0.6239 0.9519
-5.1334 11.6656 -0.6464 0.9502
-6.4359 11.6737 -0.6760 0.9480
-7.8341 11.6206 -0.7107 0.9454
-9.3756 11.5352 -0.7539 0.9422
-13.6417 11.7179 -0.9120 0.9305
11.4125 11.5879 -0.8248 0.9369
8.0584 11.8005 -0.7247 0.9444
6.4828 11.5942 -0.6737 0.9482
3.9922 11.6096 -0.6226 0.9520
2.8661 11.6165 -0.6068 0.9532
-1.3365 11.5341 -0.5889 0.9546
-2.3834 11.4818 -0.5947 0.9541
-5.9667 11.6708 -0.6647 0.9489
-7.3450 11.6653 -0.6991 0.9463
-6.7602 8.8697 -0.5656 0.9563
-10.4874 11.4728 -0.7883 0.9396
-12.8037 11.7128 -0.8800 0.9329
12.1613 11.6001 -0.8523 0.9349
10.1618 11.5930 -0.7818 0.9401
3.2535 11.6141 -0.6117 0.9528
1.1021 11.6273 -0.5923 0.9543
-0.9741 11.5520 -0.5879 0.9546
-4.2837 11.6604 -0.6300 0.9515
-5.5127 11.6680 -0.6545 0.9496
-6.8521 11.6762 -0.6866 0.9472
-8.2786 11.5961 -0.7226 0.9445
-14.4121 11.7227 -0.9422 0.9283
9.0255 11.5903 -0.7450 0.9429
7.8187 12.1365 -0.7322 0.9438
2.5379 11.6185 -0.6031 0.9535
1.4695 11.6251 -0.5942 0.9542
0.4238 11.6286 -0.5901 0.9545
-1.6490 11.5186 -0.5901 0.9545
-3.8740 11.6579 -0.6230 0.9520
-6.3687 11.6732 -0.6744 0.9481
-7.7665 11.6307 -0.7093 0.9455
-9.2951 11.5397 -0.7515 0.9424
-10.9852 11.3882 -0.8024 0.9386
-13.5197 11.7172 -0.9073 0.9309
6.6907 11.5930 -0.9814 0.9477
3.0340 11.6154 -0.8802 0.9530
1.9494 11.6221 -0.8641 0.9538
-0.1435 11.5337 -0.8457 0.9548
-2.2105 11.4277 -0.8534 0.9544
-3.2443 11.2659 -0.8596 0.9541
-4.5191 11.6619 -0.9170 0.9511
-4.2948 8.6901 -0.7107 0.9619
-8.5240 11.5052 -1.0499 0.9442
-14.9471 11.7260 -1.3930 0.9266
-7.8371 -13.1022 -1.1194 0.9406
8.9338 11.8995 -1.0910 0.9421
7.6585 12.3612 -1.0662 0.9433
5.8240 11.5983 -0.9516 0.9493
3.4243 11.6130 -0.8877 0.9526
-2.8905 11.3607 -0.8595 0.9541
-5.3192 11.6668 -0.9401 0.9499
-6.6395 11.6749 -0.9848 0.9476
-8.0325 11.5813 -1.0334 0.9450
-11.1251 11.1335 -1.1540 0.9388
-14.0152 11.7202 -1.3396 0.9293
7.9409 11.9652 -1.0529 0.9440
6.2836 11.5955 -0.9670 0.9485
5.0058 11.6033 -0.9266 0.9506
3.8216 11.6106 -0.8962 0.9522
-0.4525 11.5153 -0.8450 0.9548
-1.4824 11.4646 -0.8476 0.9547
-6.1635 11.6720 -0.9678 0.9484
-8.9905 11.4779 -1.0690 0.9432
-10.5951 11.2871 -1.1351 0.9398
-13.1512 11.7149 -1.2914 0.9318
-11.9946 -12.1208 -1.2503 0.9339
8.2005 11.5560 -1.0390 0.9448
6.7588 11.5925 -0.9839 0.9476
5.4406 11.6007 -0.9395 0.9499
4.2270 11.6081 -0.9058 0.9517
2.0020 11.6218 -0.8647 0.9538
0.9472 11.6283 -0.8554 0.9543
-0.0927 11.5431 -0.8464 0.9548
-1.1213 11.4825 -0.8459 0.9548
-2.1587 11.4304 -0.8529 0.9544
-4.4600 11.6615 -0.9154 0.9512
-8.4489 11.5096 -1.0469 0.9443
-10.0627 11.4145 -1.1157 0.9408
-12.3466 11.7100 -1.2477 0.9340
-7.9292 -13.1245 -1.1243 0.9404
8.9331 11.7900 -1.0846 0.9424
5.8880 11.5979 -0.9537 0.9492
3.4799 11.6127 -0.8889 0.9525
0.2695 11.6103 -0.8515 0.9545
-1.7939 11.4489 -0.8497 0.9546
-5.2570 11.6664 -0.9382 0.9500
-6.5713 11.6745 -0.9823 0.9477
-7.9656 11.5937 -1.0314 0.9451
-13.8894 11.7195 -1.3325 0.9297
9.4679 11.7167 -1.1045 0.9414
7.9802 11.9101 -1.0512 0.9441
5.0665 11.6030 -0.9283 0.9505
3.8783 11.6103 -0.8975 0.9521
2.7578 11.6171 -0.8755 0.9532
1.6826 11.6237 -0.8612 0.9540
-1.4313 11.4671 -0.8473 0.9547
-2.4745 11.4142 -0.8564 0.9542
-3.6417 11.6565 -0.8954 0.9522
-6.0977 11.6716 -0.9655 0.9486
-7.4829 11.6552 -1.0156 0.9460
-10.5216 11.3083 -1.1325 0.9399
-13.0342 11.7142 -1.2849 0.9321
-15.6635 11.7304 -1.4348 0.9245
6.8272 11.5921 -0.9864 0.9475
5.5029 11.6003 -0.9414 0.9498
4.2759 11.5833 -0.9053 0.9517
3.1435 11.6148 -0.8823 0.9529
2.0548 11.6215 -0.8653 0.9538
0.9988 11.6280 -0.8557 0.9543
-0.0419 11.5525 -0.8471 0.9547
-1.0705 11.4850 -0.8458 0.9548
-3.1444 11.2927 -0.8595 0.9541
-6.9917 11.6771 -0.9979 0.9469
-8.3768 11.5175 -1.0442 0.9445
-9.9780 11.4195 -1.1119 0.9410
-14.6766 11.7243 -1.3773 0.9274
7.7389 12.2484 -1.0623 0.9435
5.9523 11.5975 -0.9558 0.9491
4.7009 11.6052 -0.9181 0.9510
3.5357 11.6124 -0.8900 0.9525
2.4309 11.6192 -0.8704 0.9535
-0.7106 11.5027 -0.8450 0.9548
-1.7426 11.4515 -0.8493 0.9546
-2.7906 11.3874 -0.8597 0.9541
-3.9887 11.6586 -0.9035 0.9518
-13.7648 11.7187 -1.3255 0.9301
6.4160 11.5947 -0.9716 0.9482
3.9352 11.6099 -0.8988 0.9520
2.8118 11.6168 -0.8764 0.9532
0.6853 11.6299 -0.8542 0.9543
-0.3510 11.5202 -0.8451 0.9548
-1.3803 11.4696 -0.8470 0.9547
-4.7631 11.6634 -0.9237 0.9507
-6.0321 11.6712 -0.9633 0.9487
-8.8354 11.4870 -1.0626 0.9435
-10.4485 11.3295 -1.1300 0.9401
-12.9185 11.7135 -1.2786 0.9324
-12.1624 -12.0756 -1.2567 0.9336
9.2535 12.7994 -1.1581 0.9386
6.8959 11.5917 -0.9890 0.9473
3.1984 11.6144 -0.8833 0.9528
1.0504 11.6276 -0.8560 0.9543
0.0091 11.5620 -0.8477 0.9547
-1.0197 11.4875 -0.8456 0.9548
-2.0555 11.4356 -0.8519 0.9545
-4.3422 11.6608 -0.9123 0.9513
-6.9218 11.6766 -0.9953 0.9470
-8.3085 11.5301 -1.0420 0.9446
-9.8940 11.4245 -1.1081 0.9412
7.7789 12.1923 -1.0604 0.9436
6.0168 11.5971 -0.9580 0.9489
4.7604 11.6048 -0.9197 0.9509
3.5916 11.6120 -0.8912 0.9524
2.4844 11.6188 -0.8712 0.9535
-2.7406 11.4004 -0.8597 0.9541
-6.4359 11.6737 -0.9774 0.9479
-9.3135 11.4589 -1.0827 0.9425
-13.6417 11.7179 -1.3186 0.9304
8.0584 11.8005 -1.0477 0.9443
3.9922 11.6096 -0.9002 0.9520
0.7368 11.6296 -0.8544 0.9543
-1.3294 11.4722 -0.8468 0.9547
-2.3705 11.4195 -0.8552 0.9543
-6.7591 8.8683 -0.8176 0.9563
-10.3756 11.3505 -1.1276 0.9402
-12.8037 11.7128 -1.2724 0.9328
-15.3717 11.7249 -1.4175 0.9254
9.3395 12.7988 -1.1617 0.9384
6.9572 11.5782 -0.9904 0.9473
5.6284 11.5995 -0.9453 0.9496
0.0601 11.5714 -0.8485 0.9546
-3.0445 11.3195 -0.8595 0.9541
-14.4121 11.7227 -1.3622 0.9282
9.1255 11.7188 -1.0890 0.9422
7.8187 12.1365 -1.0585 0.9437
3.6477 11.6117 -0.8924 0.9524
2.5379 11.6185 -0.8720 0.9534
1.4695 11.6251 -0.8592 0.9541
0.4238 11.6286 -0.8532 0.9544
-2.6882 11.4031 -0.8590 0.9541
-3.8740 11.6579 -0.9007 0.9519
-5.0720 11.6653 -0.9327 0.9503
-7.7665 11.6307 -1.0254 0.9455
-10.8239 11.2209 -1.1431 0.9394
-13.5197 11.7172 -1.3118 0.9308
5.3785 11.6010 -1.2276 0.9499
-1.1659 11.4186 -1.1019 0.9549
-4.5191 11.6619 -1.2007 0.9510
-7.1329 11.6779 -1.3137 0.9465
-8.5142 11.4920 -1.3731 0.9441
-10.0083 11.2523 -1.4458 0.9413
-16.1545 10.4896 -1.8492 0.9255
-17.7612 7.4524 -1.8492 0.9255
-15.1998 -12.1535 -1.8684 0.9248
-13.9108 -13.3225 -1.8492 0.9255
-11.3223 -15.5822 -1.8492 0.9255
-8.3736 -17.3460 -1.8492 0.9255
-6.7930 -18.0237 -1.8492 0.9255
-5.1583 -18.5578 -1.8492 0.9255
-3.4825 -18.9439 -1.8492 0.9255
15.2297 11.7921 -1.8492 0.9255
14.1172 13.1036 -1.8492 0.9255
12.9082 14.3283 -1.8515 0.9254
8.9338 11.8995 -1.4285 0.9420
7.6585 12.3611 -1.3960 0.9432
3.4243 11.6130 -1.1624 0.9525
2.3243 11.6198 -1.1377 0.9535
1.2619 11.6263 -1.1227 0.9541
0.2181 11.6007 -1.1139 0.9544
-1.8353 11.3848 -1.1071 0.9547
-4.1041 11.6593 -1.1867 0.9515
-6.6395 11.6749 -1.2894 0.9475
-8.0325 11.5813 -1.3531 0.9449
-11.6972 11.7060 -1.5887 0.9357
-15.8189 10.9891 -1.8492 0.9255
-16.7361 9.5343 -1.8492 0.9255
-14.3201 -12.8815 -1.8492 0.9255
-11.8035 -15.2209 -1.8492 0.9255
-8.9113 -17.0760 -1.8492 0.9255
-5.7355 -18.3876 -1.8492 0.9255
-4.0726 -18.8259 -1.8492 0.9255
-2.3771 -19.1141 -1.8492 0.9255
17.3522 8.3606 -1.8492 0.9255
16.5373 9.8750 -1.8492 0.9255
14.5196 12.6562 -1.8492 0.9255
13.3381 13.9063 -1.8499 0.9255
9.3832 11.7172 -1.4412 0.9415
7.9409 11.9652 -1.3787 0.9439
6.2836 11.5955 -1.2662 0.9484
5.0058 11.6033 -1.2132 0.9505
3.8216 11.6106 -1.1735 0.9521
0.5818 11.6172 -1.1167 0.9543
-1.4744 11.4031 -1.1039 0.9548
-3.6983 11.6568 -1.1741 0.9520
-4.8839 11.6641 -1.2140 0.9505
-6.1635 11.6720 -1.2672 0.9483
-7.5641 11.6682 -1.3350 0.9457
-8.9397 11.4131 -1.3918 0.9434
-10.4423 11.1243 -1.4648 0.9405
-13.1512 11.7149 -1.6909 0.9317
-15.4680 11.4778 -1.8492 0.9255
-14.7155 -12.4279 -1.8492 0.9255
-11.9510 -12.0767 -1.6312 0.9340
-7.9052 -17.5644 -1.8492 0.9255
-6.3070 -18.1995 -1.8492 0.9255
-4.6586 -18.6895 -1.8492 0.9255
-2.9730 -19.0305 -1.8492 0.9255
12.5280 14.6798 -1.8528 0.9254
4.2270 11.6081 -1.1860 0.9516
0.9472 11.6283 -1.1201 0.9542
-0.0927 11.5431 -1.1082 0.9547
-3.1534 11.1349 -1.1110 0.9546
-4.4600 11.6615 -1.1986 0.9511
