ply
format ascii 1.0
element vertex 1594
property float32 x
property float32 y
property float32 z
property float32 I
end_header
4.5566 -0.6568 -2.0064 0.9801
4.6013 0.1633 -2.0066 0.9801
4.4992 0.9783 -2.0067 0.9801
4.2536 1.7621 -2.0066 0.9801
4.0793 2.1343 -2.0064 0.9801
3.8723 2.4895 -2.0063 0.9801
3.6345 2.8247 -2.0061 0.9801
2.7559 3.6847 -2.0053 0.9801
2.4159 3.9152 -2.0050 0.9801
2.0567 4.1143 -2.0047 0.9801
1.2925 4.4126 -2.0039 0.9801
0.4877 4.5701 -2.0030 0.9801
0.0781 4.5943 -2.0026 0.9801
-0.7391 4.5330 -2.0017 0.9802
-1.1402 4.4480 -2.0012 0.9802
-2.2756 3.9848 -1.9999 0.9802
-2.9462 3.5155 -1.9990 0.9802
-3.5226 2.9350 -1.9983 0.9802
-1.5294 0.1064 -0.6682 0.9933
-1.5263 -0.0303 -0.6653 0.9934
-1.5245 -0.1671 -0.6684 0.9933
-1.5079 -0.3033 -0.6703 0.9933
-1.5719 -0.4653 -0.7144 0.9929
-3.8920 -2.4170 -1.9967 0.9802
-3.6613 -2.7548 -1.9969 0.9802
-3.4013 -3.0707 -1.9971 0.9802
-2.8024 -3.6272 -1.9976 0.9802
-2.1140 -4.0687 -1.9983 0.9802
-1.7430 -4.2419 -1.9987 0.9802
-0.9620 -4.4859 -1.9995 0.9802
-0.5581 -4.5548 -1.9999 0.9802
0.2601 -4.5835 -2.0008 0.9802
0.6681 -4.5431 -2.0012 0.9802
1.0709 -4.4664 -2.0017 0.9802
2.8980 -3.5699 -2.0039 0.9801
3.2055 -3.2978 -2.0043 0.9801
3.7418 -2.6767 -2.0050 0.9801
3.9662 -2.3327 -2.0054 0.9801
4.1591 -1.9699 -2.0056 0.9801
4.5872 -0.3913 -2.0065 0.9801
4.6041 0.0195 -2.0066 0.9801
4.5276 0.8372 -2.0067 0.9801
4.4349 1.2377 -2.0066 0.9801
3.7211 2.7098 -2.0062 0.9801
3.4642 3.0306 -2.0060 0.9801
1.8143 4.2262 -2.0044 0.9801
-0.5972 4.5543 -2.0018 0.9802
-1.0008 4.4818 -2.0014 0.9802
-1.7804 4.2308 -2.0005 0.9802
-2.8351 3.6061 -1.9992 0.9802
-3.6866 2.7253 -1.9980 0.9802
-4.1109 2.0263 -1.9974 0.9802
-1.5671 0.4495 -0.7105 0.9929
-1.5261 0.1542 -0.6685 0.9933
-1.5247 0.0174 -0.6645 0.9934
-1.5289 -0.1194 -0.6684 0.9933
-1.5054 -0.2541 -0.6654 0.9934
-1.5529 -0.4074 -0.6997 0.9930
-3.2177 -3.2632 -1.9972 0.9802
-2.9142 -3.5376 -1.9975 0.9802
-1.8746 -4.1850 -1.9985 0.9802
-1.4941 -4.3364 -1.9989 0.9802
-0.7001 -4.5348 -1.9997 0.9802
0.1168 -4.5890 -2.0006 0.9802
0.5258 -4.5614 -2.0011 0.9802
0.9307 -4.4973 -2.0015 0.9802
1.3285 -4.3974 -2.0020 0.9802
2.7848 -3.6584 -2.0038 0.9801
3.1006 -3.3961 -2.0042 0.9801
4.0953 -2.0988 -2.0055 0.9801
4.5064 -0.9400 -2.0062 0.9801
4.6024 -0.1244 -2.0065 0.9801
4.5515 0.6954 -2.0067 0.9801
4.4714 1.0985 -2.0067 0.9801
4.3555 1.4930 -2.0066 0.9801
4.2048 1.8754 -2.0065 0.9801
3.2823 3.2263 -2.0058 0.9801
1.9456 4.1678 -2.0045 0.9801
1.5658 4.3238 -2.0042 0.9801
1.1736 4.4454 -2.0038 0.9801
0.7723 4.5314 -2.0033 0.9801
0.3650 4.5812 -2.0029 0.9801
-0.0451 4.5945 -2.0024 0.9802
-0.4546 4.5711 -2.0020 0.9802
-0.8603 4.5113 -2.0015 0.9802
-2.0226 4.1197 -2.0002 0.9802
-2.3815 3.9221 -1.9997 0.9802
-2.7212 3.6932 -1.9993 0.9802
-3.8381 2.5066 -1.9978 0.9802
-1.5290 0.0653 -0.6670 0.9933
-3.5862 -2.8520 -1.9969 0.9802
-3.3179 -3.1609 -1.9972 0.9802
-3.0231 -3.4447 -1.9974 0.9802
-2.7042 -3.7012 -1.9977 0.9802
-2.3637 -3.9283 -1.9980 0.9802
-1.2401 -4.4164 -1.9992 0.9802
-0.4359 -4.5684 -2.0000 0.9802
-0.0267 -4.5901 -2.0005 0.9802
0.3829 -4.5752 -2.0009 0.9802
1.5816 -4.3135 -2.0023 0.9802
1.9605 -4.1562 -2.0027 0.9801
2.3239 -3.9656 -2.0032 0.9801
2.6689 -3.7433 -2.0036 0.9801
3.5668 -2.9049 -2.0048 0.9801
3.8124 -2.5756 -2.0051 0.9801
4.2106 -1.8578 -2.0057 0.9801
4.3600 -1.4750 -2.0060 0.9801
4.5962 -0.2682 -2.0065 0.9801
4.5035 0.9583 -2.0067 0.9801
4.0887 2.1162 -2.0065 0.9801
3.3816 3.1223 -2.0059 0.9801
2.7723 3.6724 -2.0053 0.9801
2.4333 3.9044 -2.0050 0.9801
1.3121 4.4069 -2.0039 0.9801
0.9136 4.5054 -2.0035 0.9801
0.5080 4.5679 -2.0030 0.9801
0.0985 4.5940 -2.0026 0.9801
-0.3116 4.5834 -2.0021 0.9802
-1.1205 4.4531 -2.0012 0.9802
-2.2579 3.9949 -1.9999 0.9802
-2.6047 3.7767 -1.9994 0.9802
-3.2330 3.2525 -1.9986 0.9802
-3.5095 2.9507 -1.9983 0.9802
-3.7581 2.6254 -1.9979 0.9802
-3.9767 2.2794 -1.9976 0.9802
-1.5292 0.1132 -0.6683 0.9933
-1.5253 -0.1603 -0.6684 0.9933
-3.6734 -2.7385 -1.9969 0.9802
-3.1291 -3.3484 -1.9973 0.9802
-2.4852 -3.8522 -1.9979 0.9802
-1.3774 -4.3751 -1.9990 0.9802
-0.9819 -4.4815 -1.9994 0.9802
-0.5784 -4.5522 -1.9999 0.9802
1.0510 -4.4711 -2.0017 0.9802
2.1987 -4.0360 -2.0030 0.9801
2.5505 -3.8246 -2.0035 0.9801
2.8821 -3.5827 -2.0039 0.9801
3.1908 -3.3120 -2.0043 0.9801
3.9558 -2.3503 -2.0053 0.9801
4.3117 -1.6105 -2.0059 0.9801
4.5854 -0.4117 -2.0065 0.9801
4.6041 -0.0010 -2.0066 0.9801
4.5313 0.8171 -2.0067 0.9801
4.4403 1.2180 -2.0066 0.9801
3.9588 2.3498 -2.0064 0.9801
3.7332 2.6933 -2.0062 0.9801
3.1945 3.3130 -2.0057 0.9801
2.2024 4.0386 -2.0048 0.9801
1.4492 4.3640 -2.0040 0.9801
1.0540 4.4749 -2.0036 0.9801
-0.1682 4.5913 -2.0023 0.9802
-0.9809 4.4863 -2.0014 0.9802
-1.3768 4.3799 -2.0009 0.9802
-1.7616 4.2387 -2.0005 0.9802
-2.1322 4.0638 -2.0000 0.9802
-3.1300 3.3522 -1.9988 0.9802
-3.4158 3.0591 -1.9984 0.9802
-3.6744 2.7417 -1.9980 0.9802
-3.9037 2.4026 -1.9977 0.9802
-4.1018 2.0446 -1.9974 0.9802
-1.5253 0.1610 -0.6684 0.9933
-1.5256 0.0242 -0.6650 0.9934
-1.5292 -0.1125 -0.6683 0.9933
-3.9757 -2.2765 -1.9966 0.9802
-3.7571 -2.6223 -1.9968 0.9802
-3.5086 -2.9472 -1.9970 0.9802
-2.6042 -3.7725 -1.9978 0.9802
-1.8931 -4.1766 -1.9985 0.9802
-0.3133 -4.5787 -2.0002 0.9802
0.5055 -4.5636 -2.0011 0.9802
0.9107 -4.5013 -2.0015 0.9802
1.3089 -4.4032 -2.0020 0.9802
1.6968 -4.2699 -2.0024 0.9802
2.4295 -3.9022 -2.0033 0.9801
3.0855 -3.4098 -2.0041 0.9801
3.8802 -2.4726 -2.0052 0.9801
4.2590 -1.7443 -2.0058 0.9801
4.3982 -1.3576 -2.0060 0.9801
4.5702 -0.5547 -2.0064 0.9801
4.5546 0.6751 -2.0067 0.9801
4.2131 1.8567 -2.0065 0.9801
4.0305 2.2250 -2.0064 0.9801
2.6728 3.7452 -2.0052 0.9801
2.3276 3.9681 -2.0049 0.9801
1.9641 4.1591 -2.0046 0.9801
1.5850 4.3169 -2.0042 0.9801
0.7924 4.5279 -2.0033 0.9801
-0.0247 4.5947 -2.0025 0.9802
-0.4343 4.5731 -2.0020 0.9802
-2.0043 4.1287 -2.0002 0.9802
-2.7048 3.7053 -1.9993 0.9802
-3.3188 3.1645 -1.9985 0.9802
-3.8269 2.5236 -1.9978 0.9802
-4.2132 1.8029 -1.9972 0.9802
-1.5307 0.3515 -0.6845 0.9932
-1.5829 -0.5073 -0.7244 0.9928
-4.0448 -2.1511 -1.9966 0.9802
-3.8371 -2.5035 -1.9967 0.9802
-3.0384 -3.4312 -1.9974 0.9802
-2.7206 -3.6891 -1.9977 0.9802
-2.3811 -3.9177 -1.9980 0.9802
-2.0226 -4.1152 -1.9984 0.9802
-1.2597 -4.4108 -1.9991 0.9802
-0.0470 -4.5899 -2.0004 0.9802
0.7696 -4.5273 -2.0014 0.9802
1.1706 -4.4416 -2.0018 0.9802
1.5624 -4.3205 -2.0023 0.9802
1.9420 -4.1648 -2.0027 0.9801
-1.3336 -0.0026 -0.6173 0.9941
-1.3374 -0.1224 -0.6216 0.9941
-1.3191 -0.3649 -0.6335 0.9940
-1.3322 -0.5002 -0.6587 0.9937
-3.7051 -2.2099 -1.9969 0.9812
-3.2541 -2.8336 -1.9973 0.9812
-2.3887 -3.5954 -1.9981 0.9812
-2.0589 -3.7947 -1.9984 0.9812
-1.7125 -3.9639 -1.9987 0.9811
-1.3523 -4.1016 -1.9991 0.9811
-0.2183 -4.3159 -2.0003 0.9811
0.5522 -4.2878 -2.0012 0.9811
0.9327 -4.2224 -2.0016 0.9811
1.3059 -4.1233 -2.0020 0.9811
1.6688 -3.9912 -2.0025 0.9811
2.3524 -3.6327 -2.0033 0.9811
2.6675 -3.4091 -2.0037 0.9811
3.2320 -2.8820 -2.0044 0.9811
3.6938 -2.2626 -2.0051 0.9811
4.0381 -1.5707 -2.0056 0.9811
4.1626 -1.2044 -2.0058 0.9811
4.2538 -0.8284 -2.0060 0.9811
4.3110 -0.4457 -2.0061 0.9811
4.3220 0.3274 -2.0063 0.9811
3.9344 1.8181 -2.0062 0.9811
3.5483 2.4879 -2.0059 0.9811
3.3119 2.7942 -2.0057 0.9811
2.7621 3.3373 -2.0053 0.9811
2.1245 3.7739 -2.0047 0.9811
1.4197 4.0899 -2.0039 0.9811
1.0490 4.1994 -2.0036 0.9811
0.2861 4.3172 -2.0027 0.9811
-0.1001 4.3246 -2.0023 0.9811
-1.6047 4.0131 -2.0006 0.9811
-2.2913 3.6626 -1.9998 0.9811
-2.6083 3.4429 -1.9994 0.9811
-3.1774 2.9236 -1.9986 0.9811
-3.4249 2.6281 -1.9983 0.9812
-3.6451 2.3118 -1.9980 0.9812
-3.8362 1.9772 -1.9977 0.9812
-1.3277 0.5405 -0.6635 0.9937
-1.3272 0.4066 -0.6425 0.9939
-1.3041 0.2752 -0.6169 0.9941
-1.3371 0.0392 -0.6192 0.9941
-1.3255 -0.1994 -0.6205 0.9941
-1.3069 -0.3179 -0.6226 0.9941
-1.3335 -0.4537 -0.6520 0.9938
-1.3191 -0.5847 -0.6679 0.9937
-3.7723 -2.0930 -1.9969 0.9812
-3.3409 -2.7304 -1.9972 0.9812
-3.0844 -3.0179 -1.9974 0.9812
-2.8033 -3.2814 -1.9977 0.9812
-2.1763 -3.7283 -1.9983 0.9812
-1.8354 -3.9082 -1.9986 0.9811
-1.4797 -4.0571 -1.9990 0.9811
-0.3530 -4.3066 -2.0002 0.9811
0.0325 -4.3219 -2.0006 0.9811
0.4179 -4.3027 -2.0010 0.9811
0.8002 -4.2492 -2.0015 0.9811
2.2375 -3.7042 -2.0032 0.9811
2.5595 -3.4905 -2.0036 0.9811
3.3942 -2.6898 -2.0046 0.9811
3.8192 -2.0446 -2.0053 0.9811
4.2257 -0.9608 -2.0059 0.9811
4.2949 -0.5801 -2.0061 0.9811
4.3298 -0.1948 -2.0062 0.9811
4.2958 0.5777 -2.0063 0.9811
4.2271 0.9586 -2.0064 0.9811
4.1247 1.3317 -2.0063 0.9811
3.8221 2.0432 -2.0061 0.9811
3.6244 2.3758 -2.0060 0.9811
3.3977 2.6894 -2.0058 0.9811
3.1440 2.9814 -2.0056 0.9811
2.8652 3.2496 -2.0054 0.9811
2.5635 3.4917 -2.0051 0.9811
2.2415 3.7058 -2.0048 0.9811
1.9017 3.8904 -2.0044 0.9811
0.8035 4.2526 -2.0033 0.9811
-0.3508 4.3109 -2.0020 0.9811
-0.7338 4.2615 -2.0016 0.9811
-1.1107 4.1782 -2.0012 0.9811
-1.4787 4.0616 -2.0007 0.9811
-1.8346 3.9127 -2.0003 0.9811
-2.4996 3.5230 -1.9995 0.9811
-3.5712 2.4247 -1.9981 0.9812
-1.3336 0.4546 -0.6522 0.9938
-1.3331 -0.1581 -0.6214 0.9941
-1.3043 -0.2744 -0.6170 0.9941
-1.3278 -0.5396 -0.6634 0.9937
-3.8357 -1.9741 -1.9968 0.9812
-3.6446 -2.3085 -1.9970 0.9812
-2.6084 -3.4388 -1.9979 0.9812
-2.2916 -3.6583 -1.9982 0.9812
-0.8682 -4.2318 -1.9996 0.9811
-0.1026 -4.3205 -2.0004 0.9811
1.0456 -4.1962 -2.0017 0.9811
1.4160 -4.0871 -2.0022 0.9811
1.7753 -3.9453 -2.0026 0.9811
2.1206 -3.7720 -2.0030 0.9811
2.4490 -3.5685 -2.0034 0.9811
2.7581 -3.3366 -2.0038 0.9811
3.0453 -3.0778 -2.0042 0.9811
3.7533 -2.1628 -2.0052 0.9811
3.9318 -1.8197 -2.0054 0.9811
4.0789 -1.4619 -2.0057 0.9811
4.1935 -1.0924 -2.0059 0.9811
4.2746 -0.7140 -2.0060 0.9811
4.3339 0.0568 -2.0063 0.9811
4.3117 0.4432 -2.0063 0.9811
4.1644 1.2022 -2.0063 0.9811
3.4802 2.5820 -2.0059 0.9811
2.9654 3.1586 -2.0054 0.9811
2.6715 3.4101 -2.0052 0.9811
2.3564 3.6342 -2.0049 0.9811
0.9360 4.2257 -2.0034 0.9811
0.1702 4.3230 -2.0026 0.9811
-0.2160 4.3201 -2.0022 0.9811
-1.3511 4.1061 -2.0009 0.9811
-1.7116 3.9683 -2.0005 0.9811
-2.3885 3.5996 -1.9996 0.9811
-2.6995 3.3716 -1.9993 0.9811
-2.9889 3.1168 -1.9989 0.9811
-3.2544 2.8373 -1.9985 0.9811
-3.4939 2.5352 -1.9982 0.9812
-3.7056 2.2132 -1.9979 0.9812
-1.3193 0.3658 -0.6337 0.9940
-1.3150 0.2408 -0.6188 0.9941
-1.3326 -0.4936 -0.6578 0.9938
-3.7149 -2.1934 -1.9969 0.9812
-3.2666 -2.8191 -1.9973 0.9812
-1.7300 -3.9562 -1.9987 0.9811
-1.3705 -4.0955 -1.9991 0.9811
-0.6213 -4.2756 -1.9999 0.9811
1.2875 -4.1290 -2.0020 0.9811
2.0015 -3.8362 -2.0029 0.9811
2.3362 -3.6431 -2.0033 0.9811
2.6523 -3.4209 -2.0037 0.9811
2.9474 -3.1713 -2.0040 0.9811
3.2191 -2.8962 -2.0044 0.9811
3.6837 -2.2789 -2.0051 0.9811
4.0311 -1.5886 -2.0056 0.9811
4.1571 -1.2228 -2.0058 0.9811
4.3090 -0.4648 -2.0061 0.9811
4.3335 -0.0786 -2.0062 0.9811
4.3234 0.3082 -2.0063 0.9811
4.2788 0.6926 -2.0064 0.9811
4.1999 1.0715 -2.0063 0.9811
3.9425 1.8006 -2.0062 0.9811
3.5593 2.4721 -2.0059 0.9811
3.3243 2.7794 -2.0058 0.9811
3.0628 3.0645 -2.0055 0.9811
2.7769 3.3251 -2.0053 0.9811
2.4689 3.5590 -2.0050 0.9811
2.1413 3.7644 -2.0047 0.9811
1.7967 3.9397 -2.0043 0.9811
1.0677 4.1947 -2.0036 0.9811
0.6892 4.2724 -2.0032 0.9811
0.3053 4.3159 -2.0028 0.9811
-1.5869 4.0202 -2.0006 0.9811
-1.9387 3.8618 -2.0002 0.9811
-2.8902 3.2088 -1.9990 0.9811
-3.4132 2.6433 -1.9983 0.9812
-3.6348 2.3280 -1.9980 0.9812
-1.3283 0.4134 -0.6440 0.9939
-1.3021 0.2808 -0.6166 0.9941
-1.3320 0.1648 -0.6213 0.9941
-1.3374 0.0452 -0.6194 0.9941
-1.3385 -0.0744 -0.6205 0.9941
-1.3206 -0.5784 -0.6673 0.9937
-3.5815 -2.4054 -1.9970 0.9812
-3.0977 -3.0041 -1.9974 0.9812
-2.5154 -3.5076 -1.9980 0.9812
-1.8527 -3.9000 -1.9986 0.9811
-0.3722 -4.3050 -2.0001 0.9811
1.1578 -4.1669 -2.0019 0.9811
1.5252 -4.0479 -2.0023 0.9811
1.8805 -3.8965 -2.0027 0.9811
2.5440 -3.5019 -2.0035 0.9811
3.1269 -2.9952 -2.0043 0.9811
3.6105 -2.3928 -2.0049 0.9811
3.8101 -2.0615 -2.0052 0.9811
3.9793 -1.7137 -2.0055 0.9811
4.3289 -0.2140 -2.0062 0.9811
4.2983 0.5586 -2.0063 0.9811
3.4097 2.6743 -2.0058 0.9811
-0.7149 4.2647 -2.0016 0.9811
-1.4606 4.0681 -2.0008 0.9811
-1.8173 3.9208 -2.0003 0.9811
-3.5605 2.4406 -1.9981 0.9812
-3.7634 2.1129 -1.9978 0.9812
-1.3091 0.3254 -0.6244 0.9941
-1.3366 -0.0325 -0.6189 0.9941
-3.4361 -2.6093 -1.9971 0.9812
-2.3078 -3.6481 -1.9982 0.9812
-1.9735 -3.8400 -1.9985 0.9811
-1.6235 -4.0014 -1.9988 0.9811
-1.2603 -4.1310 -1.9992 0.9811
1.0269 -4.2007 -2.0017 0.9811
1.7577 -3.9531 -2.0026 0.9811
2.1038 -3.7814 -2.0030 0.9811
2.7432 -3.3487 -2.0038 0.9811
3.0316 -3.0913 -2.0042 0.9811
3.7436 -2.1795 -2.0051 0.9811
4.0724 -1.4800 -2.0057 0.9811
4.3341 0.0376 -2.0063 0.9811
4.2587 0.8071 -2.0064 0.9811
4.1697 1.1837 -2.0063 0.9811
4.0474 1.5508 -2.0063 0.9811
3.7070 2.2451 -2.0061 0.9811
3.2485 2.8675 -2.0057 0.9811
2.0395 3.8203 -2.0046 0.9811
1.6903 3.9863 -2.0042 0.9811
1.3278 4.1204 -2.0038 0.9811
0.1895 4.3223 -2.0026 0.9811
-0.5813 4.2853 -2.0018 0.9811
-1.6940 3.9760 -2.0005 0.9811
-2.0414 3.8082 -2.0001 0.9811
-2.6845 3.3836 -1.9993 0.9811
-2.9751 3.1300 -1.9989 0.9811
-3.4827 2.5508 -1.9982 0.9812
-3.8793 1.8908 -1.9976 0.9812
-1.3316 0.5076 -0.6596 0.9937
-1.3367 0.1291 -0.6216 0.9941
-1.3344 0.0093 -0.6177 0.9941
-1.3380 -0.1104 -0.6214 0.9941
-1.3184 -0.2286 -0.6194 0.9941
-1.3330 -0.4870 -0.6569 0.9938
-3.9036 -1.8359 -1.9968 0.9812
-3.7246 -2.1769 -1.9969 0.9812
-3.2791 -2.8045 -1.9973 0.9812
-1.7476 -3.9485 -1.9987 0.9811
-1.3887 -4.0894 -1.9991 0.9811
-0.2567 -4.3137 -2.0003 0.9811
0.1292 -4.3203 -2.0007 0.9811
0.5141 -4.2925 -2.0011 0.9811
0.8951 -4.2304 -2.0016 0.9811
1.9844 -3.8450 -2.0028 0.9811
2.6371 -3.4326 -2.0036 0.9811
2.9333 -3.1843 -2.0040 0.9811
3.2062 -2.9105 -2.0044 0.9811
3.8641 -1.9587 -2.0053 0.9811
4.0240 -1.6065 -2.0056 0.9811
4.1517 -1.2413 -2.0058 0.9811
4.2462 -0.8661 -2.0060 0.9811
4.3069 -0.4840 -2.0061 0.9811
4.3331 -0.0979 -2.0062 0.9811
4.3247 0.2890 -2.0063 0.9811
3.7754 2.1282 -2.0061 0.9811
3.5703 2.4563 -2.0060 0.9811
3.0764 3.0509 -2.0055 0.9811
2.1580 3.7549 -2.0047 0.9811
1.4560 4.0772 -2.0040 0.9811
1.0863 4.1900 -2.0036 0.9811
0.3244 4.3146 -2.0028 0.9811
-0.0617 4.3254 -2.0024 0.9811
-0.4471 4.3017 -2.0019 0.9811
-0.8289 4.2438 -2.0015 0.9811
-1.2038 4.1520 -2.0011 0.9811
-1.9216 3.8704 -2.0002 0.9811
-2.2587 3.6828 -1.9998 0.9811
-2.8760 3.2217 -1.9990 0.9811
-3.1513 2.9518 -1.9987 0.9811
-3.4015 2.6585 -1.9983 0.9812
-3.6244 2.3442 -1.9980 0.9812
-1.3256 0.5534 -0.6649 0.9937
-1.3294 0.4202 -0.6454 0.9939
-1.3310 0.1707 -0.6212 0.9941
-1.3384 -0.0685 -0.6203 0.9941
-1.3279 -0.1877 -0.6208 0.9941
-1.3030 -0.3047 -0.6194 0.9941
-1.3320 -0.4400 -0.6493 0.9938
-1.3220 -0.5720 -0.6668 0.9937
-3.3650 -2.7006 -1.9972 0.9812
-3.1110 -2.9903 -1.9974 0.9812
-2.8323 -3.2563 -1.9977 0.9812
-2.5309 -3.4964 -1.9979 0.9812
-0.7734 -4.2503 -1.9997 0.9811
-0.3913 -4.3032 -2.0001 0.9811
0.7624 -4.2560 -2.0014 0.9811
1.8632 -3.9048 -2.0027 0.9811
2.5284 -3.5131 -2.0035 0.9811
2.8322 -3.2742 -2.0039 0.9811
3.3701 -2.7198 -2.0046 0.9811
4.1107 -1.3703 -2.0057 0.9811
4.3316 0.1537 -2.0063 0.9811
4.2355 0.9210 -2.0064 0.9811
4.0043 1.6588 -2.0063 0.9811
3.4215 2.6591 -2.0058 0.9811
3.1704 2.9534 -2.0056 0.9811
2.5945 3.4688 -2.0051 0.9811
1.5828 4.0299 -2.0041 0.9811
1.2168 4.1543 -2.0037 0.9811
0.4591 4.3026 -2.0029 0.9811
0.0735 4.3255 -2.0025 0.9811
-0.3125 4.3139 -2.0021 0.9811
-0.6959 4.2679 -2.0017 0.9811
-1.4425 4.0746 -2.0008 0.9811
-2.4683 3.5451 -1.9995 0.9811
-3.0577 3.0490 -1.9988 0.9811
-3.3169 2.7636 -1.9984 0.9812
-1.3157 0.5982 -0.6690 0.9936
-1.3109 0.3321 -0.6260 0.9941
-1.3227 0.2118 -0.6200 0.9941
-1.3385 0.0931 -0.6211 0.9941
-1.3082 -0.2631 -0.6177 0.9941
-1.3296 -0.5266 -0.6620 0.9937
-3.8531 -1.9399 -1.9968 0.9812
-3.4476 -2.5940 -1.9971 0.9812
-3.2028 -2.8915 -1.9973 0.9812
-2.9325 -3.1660 -1.9976 0.9812
-1.9906 -3.8312 -1.9985 0.9811
-0.5255 -4.2886 -2.0000 0.9811
-0.1409 -4.3193 -2.0004 0.9811
1.3796 -4.0994 -2.0021 0.9811
1.7401 -3.9608 -2.0025 0.9811
2.4172 -3.5901 -2.0034 0.9811
3.2833 -2.8237 -2.0045 0.9811
3.9154 -1.8545 -2.0054 0.9811
4.1836 -1.1296 -2.0059 0.9811
4.2680 -0.7520 -2.0060 0.9811
4.3184 -0.3683 -2.0062 0.9811
4.3342 0.0183 -2.0063 0.9811
4.3155 0.4049 -2.0063 0.9811
4.2622 0.7881 -2.0064 0.9811
3.9012 1.8883 -2.0062 0.9811
3.7169 2.2286 -2.0061 0.9811
3.5031 2.5510 -2.0059 0.9811
3.2612 2.8530 -2.0057 0.9811
2.9934 3.1322 -2.0055 0.9811
2.3886 3.6132 -2.0049 0.9811
1.3461 4.1145 -2.0039 0.9811
-0.1776 4.3219 -2.0022 0.9811
-1.3146 4.1180 -2.0009 0.9811
-2.3564 3.6208 -1.9997 0.9811
-2.6695 3.3955 -1.9993 0.9811
-2.9611 3.1433 -1.9989 0.9811
-3.2291 2.8661 -1.9986 0.9811
-3.8709 1.9081 -1.9976 0.9812
-1.3310 0.5142 -0.6605 0.9937
-1.3382 -0.1045 -0.6213 0.9941
-1.3199 -0.2228 -0.6196 0.9941
-1.3142 -0.3448 -0.6289 0.9940
-1.3333 -0.4804 -0.6560 0.9938
-3.5269 -2.4850 -1.9971 0.9812
-3.0299 -3.0727 -1.9975 0.9812
-2.1092 -3.7669 -1.9984 0.9812
-1.4068 -4.0831 -1.9991 0.9811
-1.0372 -4.1931 -1.9994 0.9811
-0.2758 -4.3125 -2.0003 0.9811
0.1100 -4.3208 -2.0007 0.9811
0.8763 -4.2343 -2.0015 0.9811
1.2508 -4.1402 -2.0020 0.9811
1.6154 -4.0130 -2.0024 0.9811
2.6218 -3.4442 -2.0036 0.9811
3.1932 -2.9247 -2.0044 0.9811
3.4419 -2.6286 -2.0047 0.9811
4.2423 -0.8850 -2.0060 0.9811
4.3047 -0.5031 -2.0061 0.9811
4.2847 0.6546 -2.0064 0.9811
4.2093 1.0342 -2.0064 0.9811
3.9583 1.7655 -2.0062 0.9811
3.3489 2.7498 -2.0058 0.9811
3.0900 3.0372 -2.0056 0.9811
0.7271 4.2662 -2.0032 0.9811
0.3436 4.3131 -2.0028 0.9811
-0.0425 4.3257 -2.0024 0.9811
-0.4280 4.3037 -2.0020 0.9811
-0.8100 4.2475 -2.0015 0.9811
-1.1854 4.1574 -2.0011 0.9811
-1.5511 4.0342 -2.0007 0.9811
-1.9044 3.8790 -2.0002 0.9811
-2.8617 3.2345 -1.9990 0.9811
-3.1382 2.9658 -1.9987 0.9811
-3.3896 2.6736 -1.9983 0.9812
-3.6140 2.3602 -1.9980 0.9812
-3.8096 2.0282 -1.9977 0.9812
-1.3244 0.5598 -0.6656 0.9937
-1.3300 0.1765 -0.6210 0.9941
-1.3382 -0.0625 -0.6201 0.9941
-1.3290 -0.1818 -0.6209 0.9941
-1.3233 -0.5656 -0.6662 0.9937
-3.7998 -2.0425 -1.9969 0.9812
-3.1243 -2.9764 -1.9974 0.9812
-2.5464 -3.4851 -1.9979 0.9812
-1.8872 -3.8833 -1.9986 0.9811
-1.1677 -4.1584 -1.9993 0.9811
-0.7923 -4.2468 -1.9997 0.9811
-0.4104 -4.3014 -2.0001 0.9811
-0.0251 -4.3218 -2.0005 0.9811
0.7435 -4.2593 -2.0014 0.9811
1.1207 -4.1769 -2.0018 0.9811
1.4891 -4.0612 -2.0022 0.9811
3.3579 -2.7347 -2.0046 0.9811
3.9639 -1.7489 -2.0055 0.9811
4.2125 -1.0171 -2.0059 0.9811
4.2867 -0.6373 -2.0061 0.9811
4.3322 0.1345 -2.0063 0.9811
4.3031 0.5204 -2.0063 0.9811
4.2396 0.9021 -2.0064 0.9811
4.1421 1.2767 -2.0063 0.9811
4.0116 1.6410 -2.0063 0.9811
3.8491 1.9921 -2.0062 0.9811
3.4333 2.6439 -2.0058 0.9811
3.1835 2.9393 -2.0056 0.9811
2.9083 3.2112 -2.0054 0.9811
2.6099 3.4573 -2.0051 0.9811
1.9535 3.8648 -2.0045 0.9811
0.8601 4.2417 -2.0034 0.9811
0.0927 4.3252 -2.0025 0.9811
-1.0550 4.1927 -2.0012 0.9811
-2.1260 3.7614 -2.0000 0.9811
-2.4525 3.5561 -1.9996 0.9811
-2.7594 3.3225 -1.9992 0.9811
-3.0442 3.0626 -1.9988 0.9811
-3.5387 2.4721 -1.9981 0.9812
-1.3140 0.6045 -0.6695 0.9936
-1.3127 0.3387 -0.6275 0.9940
-1.3383 0.0991 -0.6212 0.9941
-1.3356 -0.0206 -0.6183 0.9941
-1.3354 -0.1404 -0.6216 0.9941
-1.3100 -0.2574 -0.6180 0.9941
-1.3234 -0.3854 -0.6380 0.9939
-1.3303 -0.5201 -0.6612 0.9937
-3.8617 -1.9228 -1.9968 0.9812
-3.4591 -2.5787 -1.9971 0.9812
-2.9465 -3.1530 -1.9976 0.9812
-2.6539 -3.4037 -1.9978 0.9812
-2.0075 -3.8222 -1.9985 0.9812
-1.6589 -3.9868 -1.9988 0.9811
-1.2970 -4.1196 -1.9992 0.9811
-0.9245 -4.2197 -1.9996 0.9811
-0.5446 -4.2862 -2.0000 0.9811
0.2258 -4.3166 -2.0008 0.9811
0.6100 -4.2801 -2.0012 0.9811
0.9896 -4.2096 -2.0017 0.9811
1.7225 -3.9685 -2.0025 0.9811
2.0700 -3.7998 -2.0029 0.9811
2.4012 -3.6008 -2.0034 0.9811
3.5113 -2.5356 -2.0048 0.9811
3.9071 -1.8719 -2.0054 0.9811
4.3343 -0.0009 -2.0063 0.9811
4.3172 0.3857 -2.0063 0.9811
4.1800 1.1466 -2.0063 0.9811
4.0610 1.5148 -2.0063 0.9811
3.9095 1.8709 -2.0062 0.9811
3.5144 2.5354 -2.0059 0.9811
3.2739 2.8385 -2.0057 0.9811
2.7168 3.3742 -2.0052 0.9811
1.3644 4.1085 -2.0039 0.9811
0.9923 4.2130 -2.0035 0.9811
0.2278 4.3205 -2.0027 0.9811
-0.1584 4.3227 -2.0023 0.9811
-0.5432 4.2904 -2.0018 0.9811
-2.9472 3.1564 -1.9989 0.9811
-3.8624 1.9253 -1.9977 0.9812
-1.3303 0.5207 -0.6613 0.9937
-1.3354 0.1409 -0.6216 0.9941
-1.3356 0.0212 -0.6183 0.9941
-1.3384 -0.0985 -0.6212 0.9941
-1.3125 -0.3381 -0.6274 0.9940
-3.7437 -2.1437 -1.9969 0.9812
-3.5379 -2.4693 -1.9971 0.9812
-3.0435 -3.0592 -1.9975 0.9812
-2.7588 -3.3189 -1.9977 0.9812
-1.4249 -4.0768 -1.9990 0.9811
-0.2950 -4.3112 -2.0002 0.9811
0.0908 -4.3212 -2.0007 0.9811
0.8575 -4.2381 -2.0015 0.9811
1.2324 -4.1457 -2.0019 0.9811
1.5975 -4.0201 -2.0024 0.9811
1.9501 -3.8624 -2.0028 0.9811
2.2873 -3.6738 -2.0032 0.9811
2.6065 -3.4558 -2.0036 0.9811
2.9048 -3.2102 -2.0040 0.9811
3.1802 -2.9388 -2.0044 0.9811
3.4302 -2.6439 -2.0047 0.9811
3.6529 -2.3278 -2.0050 0.9811
3.8465 -1.9930 -2.0053 0.9811
4.1404 -1.2781 -2.0058 0.9811
4.2383 -0.9038 -2.0060 0.9811
4.3321 -0.1364 -2.0062 0.9811
4.3271 0.2506 -2.0063 0.9811
4.1064 1.3872 -2.0063 0.9811
3.7942 2.0946 -2.0061 0.9811
3.5920 2.4245 -2.0060 0.9811
1.8491 3.9155 -2.0044 0.9811
1.4922 4.0641 -2.0040 0.9811
1.1235 4.1802 -2.0036 0.9811
0.7461 4.2629 -2.0032 0.9811
-0.4089 4.3056 -2.0020 0.9811
-0.7911 4.2511 -2.0015 0.9811
-1.8872 3.8874 -2.0003 0.9811
-2.2259 3.7029 -1.9998 0.9811
-2.5468 3.4889 -1.9994 0.9811
-3.1250 2.9797 -1.9987 0.9811
-3.6035 2.3763 -1.9980 0.9812
-1.3232 0.5662 -0.6662 0.9937
-1.3313 0.4338 -0.6481 0.9938
-1.3382 0.0631 -0.6201 0.9941
-1.3380 -0.0565 -0.6199 0.9941
-1.3301 -0.1760 -0.6211 0.9941
-1.3246 -0.5592 -0.6655 0.9937
-3.8088 -2.0256 -1.9969 0.9812
-3.6132 -2.3574 -1.9970 0.9812
-3.3888 -2.6706 -1.9972 0.9812
-3.1375 -2.9625 -1.9974 0.9812
-2.8611 -3.2309 -1.9976 0.9812
-2.5618 -3.4737 -1.9979 0.9812
-1.1861 -4.1531 -1.9993 0.9811
-0.4295 -4.2995 -2.0001 0.9811
-0.0443 -4.3216 -2.0005 0.9811
1.1021 -4.1818 -2.0018 0.9811
1.8284 -3.9211 -2.0027 0.9811
-3.4968 -2.0857 -1.9972 0.9820
-3.0711 -2.6742 -1.9975 0.9820
-2.8206 -2.9378 -1.9977 0.9820
-1.6161 -3.7409 -1.9989 0.9820
-1.2762 -3.8708 -1.9992 0.9820
-0.2060 -4.0728 -2.0004 0.9820
0.8801 -3.9845 -2.0016 0.9820
1.2323 -3.8909 -2.0020 0.9820
1.9047 -3.6115 -2.0028 0.9820
2.5171 -3.2168 -2.0036 0.9820
2.7945 -2.9800 -2.0039 0.9820
3.2806 -2.4369 -2.0046 0.9820
3.4853 -2.1349 -2.0049 0.9820
3.8101 -1.4820 -2.0054 0.9820
4.0136 -0.7816 -2.0057 0.9819
4.0676 -0.4205 -2.0059 0.9819
3.9582 1.0286 -2.0061 0.9819
3.8506 1.3775 -2.0060 0.9819
3.7122 1.7154 -2.0060 0.9819
3.3479 2.3474 -2.0057 0.9819
3.1249 2.6364 -2.0055 0.9819
2.8770 2.9043 -2.0053 0.9820
2.6062 3.1490 -2.0050 0.9820
2.3146 3.3684 -2.0048 0.9820
2.0046 3.5609 -2.0045 0.9820
1.3396 3.8592 -2.0038 0.9820
0.9899 3.9625 -2.0034 0.9820
0.2700 4.0738 -2.0027 0.9820
-0.0945 4.0808 -2.0023 0.9820
-2.4615 3.2491 -1.9995 0.9820
-2.7410 3.0161 -1.9991 0.9820
-3.4400 2.1818 -1.9982 0.9820
-1.1496 0.4680 -0.6088 0.9945
-1.1589 0.3550 -0.5945 0.9946
-1.1964 0.0351 -0.5871 0.9947
-1.1959 -0.0718 -0.5877 0.9947
-1.1574 -0.3938 -0.5997 0.9946
-1.1429 -0.5066 -0.6132 0.9944
-1.1073 -0.6144 -0.6212 0.9944
-2.9109 -2.8481 -1.9977 0.9820
-2.0539 -3.5186 -1.9985 0.9820
-1.7321 -3.6883 -1.9988 0.9820
-0.6942 -4.0174 -1.9999 0.9820
0.7552 -4.0097 -2.0015 0.9820
2.1114 -3.4953 -2.0031 0.9820
2.4152 -3.2937 -2.0034 0.9820
2.9630 -2.8131 -2.0041 0.9820
3.4168 -2.2426 -2.0048 0.9820
3.6037 -1.9292 -2.0050 0.9820
3.7618 -1.6003 -2.0053 0.9820
4.0532 0.5451 -2.0061 0.9819
3.8918 1.2565 -2.0061 0.9819
3.7641 1.5986 -2.0060 0.9819
3.6063 1.9279 -2.0059 0.9819
2.7034 3.0661 -2.0051 0.9820
2.1150 3.4967 -2.0046 0.9820
0.3972 4.0637 -2.0028 0.9820
-0.6924 4.0214 -2.0016 0.9820
-2.0533 3.5225 -2.0000 0.9820
-2.3589 3.3247 -1.9996 0.9820
-2.9110 2.8516 -1.9989 0.9820
-3.3704 2.2883 -1.9983 0.9820
-1.1853 0.1790 -0.5880 0.9947
-1.1964 -0.0344 -0.5871 0.9947
-1.1715 -0.2465 -0.5872 0.9947
-1.1250 -0.5790 -0.6206 0.9944
-3.4397 -2.1787 -1.9972 0.9820
-3.2319 -2.4770 -1.9974 0.9820
-2.9984 -2.7557 -1.9976 0.9820
-2.7410 -3.0125 -1.9978 0.9820
-2.4617 -3.2454 -1.9981 0.9820
-2.1627 -3.4525 -1.9984 0.9820
-0.8193 -3.9935 -1.9997 0.9820
-0.4600 -4.0515 -2.0001 0.9820
0.6294 -4.0311 -2.0013 0.9820
0.9867 -3.9597 -2.0017 0.9820
1.3362 -3.8567 -2.0021 0.9820
1.6752 -3.7229 -2.0025 0.9820
2.0010 -3.5593 -2.0029 0.9820
2.3109 -3.3673 -2.0033 0.9820
2.6025 -3.1483 -2.0037 0.9820
2.8735 -2.9042 -2.0040 0.9820
3.5415 -2.0408 -2.0049 0.9820
3.9567 -1.0307 -2.0056 0.9819
4.0332 -0.6737 -2.0058 0.9819
4.0775 -0.3113 -2.0059 0.9819
4.0892 0.0536 -2.0060 0.9819
4.0682 0.4181 -2.0061 0.9819
3.9292 1.1343 -2.0061 0.9819
3.8123 1.4802 -2.0060 0.9819
3.6649 1.8143 -2.0059 0.9819
3.0530 2.7191 -2.0054 0.9819
2.7980 2.9803 -2.0052 0.9820
2.2234 3.4291 -2.0047 0.9820
1.9084 3.6132 -2.0044 0.9820
1.5782 3.7684 -2.0040 0.9820
0.5240 4.0495 -2.0029 0.9820
0.1607 4.0793 -2.0026 0.9820
-0.5665 4.0413 -2.0017 0.9820
-0.9245 3.9739 -2.0013 0.9820
-1.2750 3.8748 -2.0009 0.9820
-1.6152 3.7449 -2.0005 0.9820
-2.5476 3.1818 -1.9994 0.9820
-3.2974 2.3926 -1.9984 0.9820
-3.4971 2.0887 -1.9981 0.9820
-1.1937 0.1099 -0.5880 0.9947
-1.1956 0.0030 -0.5865 0.9947
-1.1942 -0.1039 -0.5880 0.9947
-1.1797 -0.2099 -0.5878 0.9947
-1.1586 -0.3150 -0.5889 0.9947
-1.1546 -0.4277 -0.6040 0.9945
-3.3076 -2.3747 -1.9973 0.9820
-3.0829 -2.6605 -1.9975 0.9820
-2.8336 -2.9253 -1.9977 0.9820
-2.5617 -3.1667 -1.9980 0.9820
-2.2694 -3.3831 -1.9983 0.9820
-0.9437 -3.9657 -1.9996 0.9820
-0.5863 -4.0348 -2.0000 0.9820
0.5031 -4.0485 -2.0012 0.9820
1.8887 -3.6199 -2.0028 0.9820
2.2044 -3.4376 -2.0032 0.9820
3.0375 -2.7328 -2.0042 0.9820
3.6542 -1.8320 -2.0051 0.9820
3.8035 -1.4989 -2.0054 0.9820
3.9224 -1.1538 -2.0056 0.9819
4.0101 -0.7994 -2.0057 0.9819
4.0657 -0.4386 -2.0059 0.9819
4.0793 0.2908 -2.0060 0.9819
4.0371 0.6535 -2.0061 0.9819
3.8567 1.3604 -2.0060 0.9819
3.5533 2.0238 -2.0058 0.9819
3.3583 2.3325 -2.0057 0.9819
2.6202 3.1374 -2.0051 0.9820
2.3296 3.3581 -2.0048 0.9820
2.0205 3.5520 -2.0045 0.9820
1.6953 3.7175 -2.0042 0.9820
1.3567 3.8532 -2.0038 0.9820
1.0075 3.9581 -2.0035 0.9820
0.6503 4.0315 -2.0031 0.9820
-0.0763 4.0813 -2.0023 0.9820
-0.7999 4.0011 -2.0015 0.9820
-1.4975 3.7938 -2.0007 0.9820
-1.8296 3.6444 -2.0003 0.9820
-2.1469 3.4660 -1.9999 0.9820
-2.7276 3.0282 -1.9991 0.9820
-2.9863 2.7724 -1.9988 0.9820
-3.2212 2.4946 -1.9985 0.9820
-3.4303 2.1970 -1.9982 0.9820
-1.1488 0.4736 -0.6095 0.9945
-1.1588 0.3606 -0.5953 0.9946
-1.1899 0.1472 -0.5881 0.9947
-1.1961 -0.0665 -0.5876 0.9947
-1.1631 -0.2775 -0.5865 0.9947
-1.1440 -0.5010 -0.6126 0.9945
-1.1099 -0.6094 -0.6211 0.9944
-3.3801 -2.2702 -1.9973 0.9820
-2.9235 -2.8352 -1.9977 0.9820
-2.6593 -3.0850 -1.9979 0.9820
-2.0695 -3.5094 -1.9985 0.9820
-0.7120 -4.0143 -1.9998 0.9820
-0.3512 -4.0626 -2.0002 0.9820
0.3764 -4.0620 -2.0010 0.9820
0.7373 -4.0130 -2.0014 0.9820
1.4392 -3.8197 -2.0022 0.9820
2.4005 -3.3043 -2.0034 0.9820
2.6861 -3.0776 -2.0038 0.9820
3.4067 -2.2578 -2.0048 0.9820
3.8973 1.2392 -2.0061 0.9819
3.6149 1.9118 -2.0059 0.9819
2.9790 2.7999 -2.0054 0.9820
2.7170 3.0541 -2.0051 0.9820
1.4766 3.8091 -2.0039 0.9820
1.1307 3.9250 -2.0036 0.9820
0.4152 4.0619 -2.0028 0.9820
0.0512 4.0819 -2.0024 0.9820
-0.6746 4.0244 -2.0016 0.9820
-1.0306 3.9474 -2.0012 0.9820
-1.7149 3.7000 -2.0004 0.9820
-2.3441 3.3351 -1.9996 0.9820
-2.8984 2.8646 -1.9989 0.9820
-3.1418 2.5942 -1.9986 0.9820
-3.3602 2.3033 -1.9983 0.9820
-1.1598 0.2883 -0.5862 0.9947
-1.1845 0.1843 -0.5880 0.9947
-1.1727 -0.2413 -0.5873 0.9947
-1.1589 -0.3487 -0.5937 0.9946
-3.4493 -2.1634 -1.9972 0.9820
-2.4760 -3.2344 -1.9981 0.9820
-0.8371 -3.9898 -1.9997 0.9820
-0.4779 -4.0493 -2.0001 0.9820
0.2492 -4.0714 -2.0009 0.9820
1.3190 -3.8625 -2.0021 0.9820
2.2959 -3.3775 -2.0033 0.9820
2.5885 -3.1599 -2.0037 0.9820
3.3344 -2.3630 -2.0047 0.9820
3.5323 -2.0564 -2.0049 0.9820
3.7022 -1.7334 -2.0052 0.9820
3.9521 -1.0483 -2.0056 0.9819
4.0760 -0.3294 -2.0059 0.9819
4.0894 0.0354 -2.0060 0.9819
4.0700 0.4001 -2.0061 0.9819
3.8188 1.4633 -2.0060 0.9819
3.2945 2.4216 -2.0056 0.9819
2.8113 2.9679 -2.0052 0.9820
2.5350 3.2064 -2.0050 0.9820
1.9244 3.6047 -2.0044 0.9820
1.5950 3.7614 -2.0041 0.9820
0.1788 4.0786 -2.0026 0.9820
-0.1857 4.0775 -2.0022 0.9820
-0.5485 4.0438 -2.0018 0.9820
-1.2578 3.8805 -2.0010 0.9820
-1.5986 3.7521 -2.0005 0.9820
-2.5334 3.1931 -1.9994 0.9820
-2.8076 2.9539 -1.9990 0.9820
-3.0594 2.6912 -1.9987 0.9820
-3.2867 2.4073 -1.9984 0.9820
-1.1326 0.5521 -0.6181 0.9944
-1.1589 0.3269 -0.5906 0.9946
-1.1933 0.1152 -0.5881 0.9947
-1.1958 0.0083 -0.5866 0.9947
-1.1946 -0.0986 -0.5880 0.9947
-1.1369 -0.5347 -0.6163 0.9944
-3.5152 -2.0545 -1.9972 0.9820
-3.0947 -2.6468 -1.9975 0.9820
-2.5758 -3.1553 -1.9980 0.9820
-2.2844 -3.3729 -1.9982 0.9820
-0.9613 -3.9614 -1.9996 0.9820
-0.6042 -4.0322 -2.0000 0.9820
0.1219 -4.0770 -2.0007 0.9820
0.4851 -4.0507 -2.0011 0.9820
1.5412 -3.7800 -2.0024 0.9820
1.8725 -3.6282 -2.0028 0.9820
2.7678 -3.0047 -2.0039 0.9820
3.2587 -2.4659 -2.0045 0.9820
3.4662 -2.1657 -2.0048 0.9820
3.6460 -1.8482 -2.0051 0.9820
3.7968 -1.5158 -2.0053 0.9820
3.9173 -1.1712 -2.0056 0.9819
4.0805 0.2727 -2.0060 0.9819
3.9672 0.9934 -2.0061 0.9819
3.8627 1.3432 -2.0060 0.9819
3.7273 1.6824 -2.0060 0.9819
3.3687 2.3176 -2.0057 0.9819
3.1483 2.6086 -2.0055 0.9819
2.6341 3.1257 -2.0051 0.9820
1.7118 3.7099 -2.0042 0.9820
1.3739 3.8472 -2.0038 0.9820
0.6682 4.0286 -2.0031 0.9820
-0.7822 4.0047 -2.0015 0.9820
-2.1315 3.4755 -1.9999 0.9820
-2.4326 3.2709 -1.9995 0.9820
-2.7141 3.0404 -1.9992 0.9820
-3.2101 2.5089 -1.9985 0.9820
-1.1198 0.5898 -0.6208 0.9944
-1.1479 0.4792 -0.6101 0.9945
-1.1586 0.3662 -0.5960 0.9946
-1.1687 0.2575 -0.5870 0.9947
-1.1892 0.1525 -0.5881 0.9947
-1.1964 0.0457 -0.5873 0.9947
-1.1646 -0.2723 -0.5867 0.9947
-1.1450 -0.4954 -0.6120 0.9945
-1.1125 -0.6044 -0.6211 0.9944
-3.3902 -2.2551 -1.9973 0.9820
-3.1758 -2.5487 -1.9974 0.9820
-2.9361 -2.8221 -1.9976 0.9820
-2.6730 -3.0731 -1.9979 0.9820
-1.7648 -3.6727 -1.9988 0.9820
-1.4304 -3.8161 -1.9991 0.9820
-1.0845 -3.9292 -1.9994 0.9820
-0.7298 -4.0110 -1.9998 0.9820
0.7195 -4.0162 -2.0014 0.9820
1.4222 -3.8260 -2.0022 0.9820
1.7581 -3.6847 -2.0026 0.9820
2.9379 -2.8393 -2.0041 0.9820
3.1799 -2.5664 -2.0044 0.9820
3.3967 -2.2729 -2.0047 0.9820
3.7474 -1.6336 -2.0053 0.9820
3.8786 -1.2930 -2.0055 0.9819
3.9789 -0.9420 -2.0057 0.9819
3.7782 1.5651 -2.0060 0.9819
3.6233 1.8958 -2.0059 0.9819
3.4396 2.2113 -2.0058 0.9819
3.2284 2.5090 -2.0056 0.9819
2.4481 3.2730 -2.0049 0.9820
2.1461 3.4778 -2.0046 0.9820
0.7938 4.0060 -2.0032 0.9820
0.4332 4.0600 -2.0029 0.9820
0.0694 4.0817 -2.0025 0.9820
-0.2949 4.0708 -2.0021 0.9820
-0.6567 4.0274 -2.0016 0.9820
-1.0131 3.9520 -2.0012 0.9820
-2.0220 3.5407 -2.0000 0.9820
-2.6180 3.1239 -1.9993 0.9820
-2.8856 2.8774 -1.9989 0.9820
-3.3499 2.3182 -1.9983 0.9820
-3.5429 2.0099 -1.9980 0.9820
-1.1581 0.2934 -0.5860 0.9947
-1.1590 -0.3431 -0.5929 0.9946
-3.4589 -2.1480 -1.9972 0.9820
-3.0227 -2.7289 -1.9976 0.9820
-2.7676 -2.9880 -1.9978 0.9820
-2.4904 -3.2233 -1.9981 0.9820
-1.2067 -3.8932 -1.9993 0.9820
-0.8548 -3.9860 -1.9997 0.9820
-0.1330 -4.0760 -2.0005 0.9820
0.5936 -4.0365 -2.0013 0.9820
0.9514 -3.9682 -2.0017 0.9820
1.3019 -3.8683 -2.0021 0.9820
1.6420 -3.7375 -2.0025 0.9820
1.9692 -3.5769 -2.0029 0.9820
2.2809 -3.3876 -2.0033 0.9820
3.0980 -2.6643 -2.0043 0.9820
3.9474 -1.0658 -2.0056 0.9819
4.0270 -0.7095 -2.0058 0.9819
4.0215 0.7437 -2.0061 0.9819
3.8253 1.4463 -2.0060 0.9819
3.6809 1.7816 -2.0059 0.9819
3.5071 2.1027 -2.0058 0.9819
3.3053 2.4070 -2.0057 0.9819
3.0771 2.6920 -2.0055 0.9819
1.6117 3.7543 -2.0041 0.9820
1.2702 3.8824 -2.0037 0.9820
0.5599 4.0448 -2.0030 0.9820
-0.1676 4.0783 -2.0022 0.9820
-0.5306 4.0463 -2.0018 0.9820
-1.2406 3.8861 -2.0010 0.9820
-1.5819 3.7592 -2.0006 0.9820
-3.4785 2.1197 -1.9981 0.9820
-1.1312 0.5576 -0.6186 0.9944
-1.1960 0.0136 -0.5867 0.9947
-1.1949 -0.0933 -0.5879 0.9947
-1.1817 -0.1995 -0.5879 0.9947
-1.1382 -0.5291 -0.6157 0.9944
-3.5242 -2.0388 -1.9972 0.9820
-3.3286 -2.3453 -1.9973 0.9820
-2.8595 -2.8999 -1.9977 0.9820
-2.5897 -3.1438 -1.9980 0.9820
-1.6658 -3.7189 -1.9989 0.9820
-0.6221 -4.0294 -1.9999 0.9820
0.1038 -4.0774 -2.0007 0.9820
0.8269 -3.9957 -2.0015 0.9820
1.1803 -3.9069 -2.0019 0.9820
1.5244 -3.7868 -2.0023 0.9820
2.1738 -3.4570 -2.0031 0.9820
2.7544 -3.0169 -2.0039 0.9820
3.6377 -1.8643 -2.0051 0.9820
3.7900 -1.5326 -2.0053 0.9820
3.9120 -1.1886 -2.0055 0.9819
4.0616 -0.4747 -2.0059 0.9819
4.0880 -0.1105 -2.0060 0.9819
3.9716 0.9758 -2.0061 0.9819
3.8686 1.3261 -2.0060 0.9819
3.3790 2.3026 -2.0057 0.9819
2.6480 3.1140 -2.0051 0.9820
2.3594 3.3373 -2.0048 0.9820
2.0520 3.5340 -2.0045 0.9820
1.7283 3.7023 -2.0042 0.9820
0.6861 4.0256 -2.0031 0.9820
0.3242 4.0700 -2.0027 0.9820
-0.4039 4.0612 -2.0019 0.9820
-1.1186 3.9232 -2.0011 0.9820
-1.4638 3.8070 -2.0007 0.9820
-1.7971 3.6605 -2.0003 0.9820
-2.4180 3.2817 -1.9995 0.9820
-2.7006 3.0524 -1.9992 0.9820
-2.9616 2.7989 -1.9988 0.9820
-3.4107 2.2275 -1.9982 0.9820
-1.1173 0.5949 -0.6209 0.9944
-1.1584 0.3718 -0.5968 0.9946
-1.1885 0.1578 -0.5881 0.9947
-1.1964 0.0511 -0.5874 0.9947
-1.1963 -0.0559 -0.5875 0.9947
-1.1660 -0.2672 -0.5868 0.9947
-1.1582 -0.3769 -0.5975 0.9946
-1.1151 -0.5994 -0.6210 0.9944
-3.4001 -2.2400 -1.9973 0.9820
-2.6866 -3.0612 -1.9979 0.9820
-1.7811 -3.6648 -1.9987 0.9820
-1.4473 -3.8097 -1.9991 0.9820
-0.7477 -4.0077 -1.9998 0.9820
-0.0237 -4.0784 -2.0006 0.9820
0.7016 -4.0193 -2.0014 0.9820
2.0646 -3.5230 -2.0030 0.9820
2.3710 -3.3255 -2.0034 0.9820
2.6587 -3.1013 -2.0037 0.9820
2.9252 -2.8523 -2.0041 0.9820
3.3865 -2.2879 -2.0047 0.9820
3.5776 -1.9770 -2.0050 0.9820
3.7401 -1.6502 -2.0053 0.9820
3.8728 -1.3102 -2.0055 0.9819
4.0447 -0.6013 -2.0058 0.9819
4.0876 0.1269 -2.0060 0.9819
3.7851 1.5483 -2.0060 0.9819
3.6317 1.8796 -2.0059 0.9819
3.4494 2.1960 -2.0058 0.9819
2.7441 3.0299 -2.0052 0.9820
2.1615 3.4683 -2.0046 0.9820
1.8432 3.6467 -2.0043 0.9820
1.1656 3.9148 -2.0036 0.9820
0.8116 4.0025 -2.0033 0.9820
0.0875 4.0814 -2.0025 0.9820
-0.2768 4.0721 -2.0021 0.9820
-0.6388 4.0304 -2.0017 0.9820
-1.3442 3.8512 -2.0008 0.9820
-2.6041 3.1355 -1.9993 0.9820
-2.8729 2.8902 -1.9990 0.9820
-3.1187 2.6221 -1.9986 0.9820
-1.1561 0.4114 -0.6019 0.9945
-1.1580 0.2988 -0.5866 0.9947
-1.1826 0.1948 -0.5879 0.9947
-1.1952 0.0885 -0.5879 0.9947
-1.1752 -0.2309 -0.5875 0.9947
-1.1520 -0.4504 -0.6068 0.9945
-3.2646 -2.4337 -1.9974 0.9820
-2.5046 -3.2122 -1.9980 0.9820
-1.8946 -3.6072 -1.9986 0.9820
-0.8725 -3.9821 -1.9997 0.9820
-0.5139 -4.0448 -2.0000 0.9820
-0.1511 -4.0754 -2.0004 0.9820
0.9338 -3.9724 -2.0017 0.9820
1.2847 -3.8741 -2.0021 0.9820
1.6254 -3.7448 -2.0025 0.9820
2.2658 -3.3977 -2.0032 0.9820
2.5603 -3.1827 -2.0036 0.9820
3.0861 -2.6780 -2.0043 0.9820
3.3132 -2.3925 -2.0046 0.9820
3.5139 -2.0877 -2.0049 0.9820
3.6866 -1.7662 -2.0052 0.9820
3.8298 -1.4305 -2.0054 0.9820
4.0895 -0.0009 -2.0060 0.9819
3.0891 2.6783 -2.0055 0.9819
2.8376 2.9428 -2.0053 0.9820
2.5635 3.1838 -2.0050 0.9820
2.2689 3.3993 -2.0047 0.9820
1.9564 3.5875 -2.0044 0.9820
1.6283 3.7471 -2.0041 0.9820
0.2150 4.0770 -2.0026 0.9820
-0.5126 4.0486 -2.0018 0.9820
-0.8715 3.9860 -2.0014 0.9820
-1.5652 3.7662 -2.0006 0.9820
-2.5050 3.2155 -1.9994 0.9820
-3.0354 2.7184 -1.9987 0.9820
-1.1562 -0.4108 -0.6019 0.9945
-1.1394 -0.5235 -0.6151 0.9944
-2.8723 -2.8872 -1.9977 0.9820
-2.6037 -3.1322 -1.9979 0.9820
-2.3142 -3.3524 -1.9982 0.9820
-1.3447 -3.8474 -1.9992 0.9820
-0.6400 -4.0266 -1.9999 0.9820
-0.2783 -4.0684 -2.0003 0.9820
0.0856 -4.0778 -2.0007 0.9820
0.8092 -3.9993 -2.0015 0.9820
1.1629 -3.9120 -2.0019 0.9820
1.5075 -3.7935 -2.0023 0.9820
1.8402 -3.6446 -2.0027 0.9820
2.4594 -3.2609 -2.0035 0.9820
2.7410 -3.0291 -2.0039 0.9820
3.2366 -2.4947 -2.0045 0.9820
3.4468 -2.1964 -2.0048 0.9820
3.6294 -1.8805 -2.0051 0.9820
4.0827 0.2365 -2.0060 0.9819
4.0455 0.5997 -2.0061 0.9819
3.3892 2.2876 -2.0057 0.9819
2.9282 2.8528 -2.0053 0.9820
2.6618 3.1023 -2.0051 0.9820
2.3742 3.3268 -2.0048 0.9820
2.0676 3.5248 -2.0045 0.9820
1.7447 3.6946 -2.0042 0.9820
1.4080 3.8349 -2.0039 0.9820
1.0602 3.9445 -2.0035 0.9820
0.7040 4.0225 -2.0031 0.9820
-0.0219 4.0820 -2.0024 0.9820
-0.3859 4.0630 -2.0020 0.9820
-1.7809 3.6685 -2.0003 0.9820
-2.4035 3.2925 -1.9996 0.9820
-3.1877 2.5374 -1.9985 0.9820
-1.1148 0.5999 -0.6210 0.9944
-1.1582 0.3775 -0.5975 0.9946
-1.1964 -0.0505 -0.5874 0.9947
-1.1674 -0.2621 -0.5869 0.9947
-1.1584 -0.3713 -0.5967 0.9946
-1.1470 -0.4842 -0.6107 0.9945
-3.1983 -2.5204 -1.9974 0.9820
-2.9610 -2.7959 -1.9976 0.9820
-2.4177 -3.2783 -1.9981 0.9820
-2.1160 -3.4814 -1.9984 0.9820
-1.7973 -3.6568 -1.9987 0.9820
-0.7654 -4.0043 -1.9998 0.9820
-0.0418 -4.0782 -2.0006 0.9820
0.6837 -4.0224 -2.0014 0.9820
1.0400 -3.9462 -2.0018 0.9820
1.7253 -3.7001 -2.0026 0.9820
-1.1059 -0.0021 -0.5737 0.9950
-1.1040 -0.1010 -0.5751 0.9950
-1.0638 -0.2943 -0.5726 0.9950
-1.0573 -0.3970 -0.5859 0.9949
-3.1178 -2.2595 -1.9976 0.9828
-2.9041 -2.5288 -1.9977 0.9828
-2.6673 -2.7781 -1.9980 0.9828
-2.1318 -3.2086 -1.9984 0.9828
-1.8373 -3.3864 -1.9987 0.9828
-1.5282 -3.5374 -1.9990 0.9828
-1.2068 -3.6602 -1.9994 0.9828
-0.8757 -3.7539 -1.9997 0.9828
-0.1948 -3.8511 -2.0004 0.9828
0.1495 -3.8539 -2.0008 0.9828
0.8322 -3.7675 -2.0016 0.9828
1.1651 -3.6789 -2.0020 0.9828
1.8009 -3.4147 -2.0027 0.9828
3.4625 -1.7167 -2.0049 0.9827
3.8553 0.2921 -2.0058 0.9827
3.8140 0.6348 -2.0058 0.9827
2.9544 2.4925 -2.0053 0.9827
2.4640 2.9772 -2.0049 0.9827
1.2666 3.6487 -2.0037 0.9827
0.9359 3.7465 -2.0033 0.9827
0.5979 3.8144 -2.0030 0.9828
-0.0893 3.8585 -2.0022 0.9828
-0.7732 3.7798 -2.0015 0.9828
-1.7452 3.4382 -2.0003 0.9828
-2.0446 3.2683 -2.0000 0.9828
-2.5919 2.8520 -1.9993 0.9828
-1.0832 0.2286 -0.5743 0.9950
-1.1010 0.1312 -0.5752 0.9950
-1.1066 0.0325 -0.5743 0.9950
-1.0611 -0.3610 -0.5815 0.9950
-1.0459 -0.4636 -0.5935 0.9949
-2.9816 -2.4368 -1.9977 0.9828
-2.5018 -2.9284 -1.9981 0.9828
-1.9421 -3.3272 -1.9986 0.9828
-1.6379 -3.4877 -1.9989 0.9828
-0.9925 -3.7245 -1.9996 0.9828
-0.6564 -3.7988 -1.9999 0.9828
-0.3150 -3.8429 -2.0003 0.9828
0.0290 -3.8564 -2.0007 0.9828
0.3729 -3.8392 -2.0011 0.9828
0.7140 -3.7914 -2.0015 0.9828
1.0495 -3.7133 -2.0018 0.9828
1.3768 -3.6056 -2.0022 0.9828
1.6932 -3.4690 -2.0026 0.9828
1.9963 -3.3048 -2.0030 0.9828
2.8014 -2.6597 -2.0040 0.9827
3.0280 -2.3996 -2.0043 0.9827
3.4071 -1.8239 -2.0048 0.9827
3.5566 -1.5129 -2.0051 0.9827
3.6777 -1.1898 -2.0053 0.9827
3.8623 -0.1737 -2.0057 0.9827
3.8625 0.1715 -2.0058 0.9827
3.7707 0.8550 -2.0058 0.9827
3.5586 1.5113 -2.0057 0.9827
3.4095 1.8226 -2.0056 0.9827
3.2331 2.1194 -2.0055 0.9827
2.8046 2.6596 -2.0052 0.9827
2.5559 2.8988 -2.0049 0.9827
2.2869 3.1149 -2.0047 0.9827
1.9997 3.3060 -2.0044 0.9827
1.6966 3.4707 -2.0041 0.9827
1.3800 3.6076 -2.0038 0.9827
1.0526 3.7157 -2.0035 0.9827
0.0313 3.8596 -2.0024 0.9828
-0.3130 3.8463 -2.0020 0.9828
-0.6547 3.8023 -2.0016 0.9828
-1.3194 3.6241 -2.0008 0.9828
-1.6371 3.4913 -2.0004 0.9828
-1.9416 3.3308 -2.0001 0.9828
-2.7527 2.6965 -1.9990 0.9828
-2.9818 2.4398 -1.9987 0.9828
-1.0457 0.4643 -0.5936 0.9949
-1.0610 0.3617 -0.5815 0.9950
-1.1066 -0.0318 -0.5743 0.9950
-1.0632 -0.3250 -0.5768 0.9950
-1.0527 -0.4278 -0.5895 0.9949
-0.9738 -0.6168 -0.5980 0.9948
-2.8354 -2.6059 -1.9978 0.9828
-2.0451 -3.2647 -1.9985 0.9828
-1.4329 -3.5772 -1.9991 0.9828
-1.1083 -3.6914 -1.9995 0.9828
0.5952 -3.8116 -2.0013 0.9828
1.5839 -3.5200 -2.0025 0.9828
1.8919 -3.3653 -2.0028 0.9828
2.9513 -2.4929 -2.0042 0.9827
3.3483 -1.9294 -2.0048 0.9827
3.5074 -1.6233 -2.0050 0.9827
3.6386 -1.3041 -2.0052 0.9827
3.7408 -0.9745 -2.0054 0.9827
3.8131 -0.6370 -2.0056 0.9827
3.8549 -0.2943 -2.0057 0.9827
3.8461 0.3953 -2.0058 0.9827
3.4648 1.7153 -2.0057 0.9827
3.1045 2.3033 -2.0054 0.9827
2.6454 2.8177 -2.0050 0.9827
2.3832 3.0421 -2.0048 0.9827
2.1021 3.2421 -2.0045 0.9827
0.8351 3.7700 -2.0032 0.9827
0.4954 3.8288 -2.0029 0.9828
0.1519 3.8570 -2.0025 0.9828
-0.1927 3.8545 -2.0021 0.9828
-1.5273 3.5410 -2.0006 0.9828
-1.8367 3.3900 -2.0002 0.9828
-2.1314 3.2121 -1.9998 0.9828
-2.4089 3.0087 -1.9995 0.9828
-2.6672 2.7814 -1.9992 0.9828
-0.9900 0.5913 -0.5982 0.9948
-1.0572 0.3977 -0.5860 0.9949
-1.0638 0.2950 -0.5727 0.9950
-1.0899 0.1996 -0.5748 0.9950
-1.1040 0.1017 -0.5751 0.9950
-1.1059 0.0028 -0.5737 0.9950
-1.1044 -0.0961 -0.5751 0.9950
-1.0910 -0.1941 -0.5749 0.9950
-1.0650 -0.2895 -0.5725 0.9950
-1.0386 -0.4941 -0.5967 0.9948
-0.9930 -0.5863 -0.5982 0.9948
-3.1278 -2.2457 -1.9976 0.9828
-2.9153 -2.5159 -1.9977 0.9828
-0.8923 -3.7499 -1.9997 0.9828
-0.5544 -3.8152 -2.0001 0.9828
-0.2119 -3.8502 -2.0004 0.9828
0.1324 -3.8545 -2.0008 0.9828
0.4757 -3.8280 -2.0012 0.9828
1.4731 -3.5676 -2.0023 0.9828
1.7857 -3.4226 -2.0027 0.9828
2.3663 -3.0519 -2.0034 0.9827
3.0913 -2.3177 -2.0044 0.9827
3.4548 -1.7320 -2.0049 0.9827
3.5960 -1.4171 -2.0051 0.9827
3.7084 -1.0908 -2.0053 0.9827
3.8438 -0.4146 -2.0056 0.9827
3.8656 -0.0701 -2.0057 0.9827
3.8566 0.2749 -2.0058 0.9827
3.6462 1.2861 -2.0058 0.9827
3.5168 1.6062 -2.0057 0.9827
2.9655 2.4794 -2.0053 0.9827
2.7322 2.7337 -2.0051 0.9827
2.4772 2.9662 -2.0049 0.9827
0.9525 3.7423 -2.0034 0.9827
0.2724 3.8507 -2.0026 0.9828
-0.4160 3.8363 -2.0019 0.9828
-0.7564 3.7832 -2.0015 0.9828
-1.0906 3.6999 -2.0011 0.9828
-2.3139 3.0827 -1.9996 0.9828
-0.9705 0.6216 -0.5979 0.9948
-1.0518 0.4336 -0.5902 0.9949
-1.1062 -0.0615 -0.5748 0.9950
-1.0755 -0.2566 -0.5736 0.9950
-1.0469 -0.4585 -0.5929 0.9949
-2.9924 -2.4235 -1.9977 0.9828
-2.5147 -2.9173 -1.9981 0.9828
-2.2448 -3.1303 -1.9983 0.9828
-1.9569 -3.3185 -1.9986 0.9828
-1.6533 -3.4804 -1.9989 0.9828
-1.0090 -3.7200 -1.9996 0.9828
-0.6733 -3.7958 -1.9999 0.9828
-0.3321 -3.8414 -2.0003 0.9828
1.0330 -3.7179 -2.0018 0.9828
1.6778 -3.4765 -2.0026 0.9828
1.9816 -3.3136 -2.0030 0.9828
2.5397 -2.9098 -2.0037 0.9827
2.7896 -2.6721 -2.0040 0.9827
3.0172 -2.4130 -2.0043 0.9827
3.5498 -1.5287 -2.0051 0.9827
3.7656 -0.8738 -2.0054 0.9827
3.8615 -0.1909 -2.0057 0.9827
3.8633 0.1543 -2.0058 0.9827
3.7745 0.8383 -2.0058 0.9827
3.6846 1.1716 -2.0058 0.9827
3.4176 1.8075 -2.0056 0.9827
3.2425 2.1050 -2.0055 0.9827
2.3007 3.1047 -2.0047 0.9827
0.7337 3.7909 -2.0031 0.9828
0.3926 3.8405 -2.0028 0.9828
-0.6378 3.8052 -2.0016 0.9828
-1.3033 3.6300 -2.0008 0.9828
-1.6216 3.4986 -2.0005 0.9828
-1.9268 3.3394 -2.0001 0.9828
-2.2166 3.1537 -1.9997 0.9828
-2.7407 2.7087 -1.9991 0.9828
-2.9709 2.4531 -1.9988 0.9828
-1.0724 0.2666 -0.5733 0.9950
-1.1065 -0.0269 -0.5742 0.9950
-1.1017 -0.1257 -0.5752 0.9950
-1.0845 -0.2231 -0.5744 0.9950
-1.0634 -0.3199 -0.5761 0.9950
-1.0536 -0.4227 -0.5889 0.9949
-0.9766 -0.6125 -0.5980 0.9948
-2.8469 -2.5932 -1.9978 0.9828
-2.3414 -3.0585 -1.9983 0.9828
-1.7612 -3.4268 -1.9988 0.9828
-1.1247 -3.6864 -1.9995 0.9828
-0.7915 -3.7727 -1.9998 0.9828
-0.4519 -3.8289 -2.0002 0.9828
-0.1086 -3.8547 -2.0005 0.9828
0.9163 -3.7481 -2.0017 0.9828
2.1708 -3.1934 -2.0032 0.9828
2.7045 -2.7578 -2.0039 0.9827
2.9402 -2.5060 -2.0042 0.9827
3.1525 -2.2341 -2.0045 0.9827
3.5002 -1.6388 -2.0050 0.9827
3.6328 -1.3202 -2.0052 0.9827
3.7364 -0.9910 -2.0054 0.9827
3.8536 -0.3115 -2.0057 0.9827
3.7988 0.7199 -2.0058 0.9827
3.6104 1.3834 -2.0058 0.9827
3.3068 2.0027 -2.0056 0.9827
2.6579 2.8059 -2.0050 0.9827
1.1846 3.6760 -2.0036 0.9827
0.8518 3.7663 -2.0032 0.9827
0.5124 3.8266 -2.0029 0.9828
0.1690 3.8563 -2.0025 0.9828
-0.1756 3.8553 -2.0021 0.9828
-0.8575 3.7613 -2.0014 0.9828
-1.5115 3.5478 -2.0006 0.9828
-2.6549 2.7932 -1.9992 0.9828
-0.9873 0.5956 -0.5982 0.9948
-1.0347 0.5043 -0.5971 0.9948
-1.0565 0.4028 -0.5866 0.9949
-1.0889 0.2044 -0.5748 0.9950
-1.0666 -0.2849 -0.5727 0.9950
-1.0585 -0.3867 -0.5847 0.9949
-1.0399 -0.4891 -0.5962 0.9948
-0.9956 -0.5819 -0.5982 0.9948
-3.1378 -2.2317 -1.9976 0.9828
-2.9265 -2.5029 -1.9977 0.9828
-2.6918 -2.7542 -1.9979 0.9828
-1.8673 -3.3699 -1.9987 0.9828
-1.5595 -3.5236 -1.9990 0.9828
-0.2290 -3.8492 -2.0004 0.9828
0.1153 -3.8550 -2.0008 0.9828
0.4587 -3.8301 -2.0012 0.9828
1.1324 -3.6891 -2.0019 0.9828
1.4572 -3.5740 -2.0023 0.9828
1.7705 -3.4305 -2.0027 0.9828
2.3527 -3.0624 -2.0034 0.9827
2.6169 -2.8408 -2.0038 0.9827
3.0810 -2.3314 -2.0044 0.9827
3.4471 -1.7473 -2.0049 0.9827
3.5896 -1.4331 -2.0051 0.9827
3.7035 -1.1073 -2.0053 0.9827
3.7878 -0.7726 -2.0055 0.9827
3.8419 -0.4317 -2.0056 0.9827
3.8653 -0.0873 -2.0057 0.9827
3.8578 0.2578 -2.0058 0.9827
3.6519 1.2699 -2.0058 0.9827
3.5239 1.5905 -2.0057 0.9827
3.3678 1.8984 -2.0056 0.9827
3.1849 2.1911 -2.0055 0.9827
2.9765 2.4662 -2.0053 0.9827
2.4904 2.9552 -2.0049 0.9827
1.9252 3.3498 -2.0043 0.9827
0.9692 3.7381 -2.0034 0.9827
-1.7147 3.4537 -2.0004 0.9828
-2.3002 3.0929 -1.9996 0.9828
-3.0355 2.3725 -1.9987 0.9828
-3.2345 2.0920 -1.9984 0.9828
-1.0196 0.5370 -0.5978 0.9948
-1.0508 0.4387 -0.5908 0.9949
-1.1066 0.0423 -0.5745 0.9950
-1.1064 -0.0566 -0.5747 0.9950
-1.0978 -0.1552 -0.5752 0.9950
-1.0480 -0.4534 -0.5924 0.9949
-3.2059 -2.1325 -1.9975 0.9828
-3.0031 -2.4102 -1.9977 0.9828
-1.9716 -3.3098 -1.9986 0.9828
-1.6688 -3.4729 -1.9989 0.9828
-1.3526 -3.6085 -1.9992 0.9828
0.3388 -3.8423 -2.0010 0.9828
1.0165 -3.7224 -2.0018 0.9828
1.9668 -3.3223 -2.0029 0.9828
2.5267 -2.9210 -2.0036 0.9827
3.2114 -2.1489 -2.0046 0.9827
3.3907 -1.8541 -2.0048 0.9827
3.5429 -1.5445 -2.0051 0.9827
3.7617 -0.8906 -2.0054 0.9827
3.8264 -0.5515 -2.0056 0.9827
3.8606 -0.2080 -2.0057 0.9827
3.8364 0.4812 -2.0058 0.9827
3.7782 0.8215 -2.0058 0.9827
3.4256 1.7923 -2.0057 0.9827
3.0522 2.3721 -2.0054 0.9827
2.3145 3.0945 -2.0047 0.9827
2.0290 3.2881 -2.0044 0.9827
0.4096 3.8388 -2.0028 0.9828
-0.2788 3.8490 -2.0020 0.9828
-1.2872 3.6358 -2.0009 0.9828
-1.6060 3.5058 -2.0005 0.9828
-1.9119 3.3479 -2.0001 0.9828
-2.4755 2.9539 -1.9994 0.9828
-2.9600 2.4663 -1.9988 0.9828
-3.1677 2.1921 -1.9985 0.9828
-1.0435 0.4744 -0.5946 0.9948
-1.0601 0.3719 -0.5828 0.9950
-1.0710 0.2713 -0.5731 0.9950
-1.1065 -0.0220 -0.5741 0.9950
-1.0544 -0.4176 -0.5883 0.9949
-0.9794 -0.6082 -0.5981 0.9948
-3.0769 -2.3151 -1.9976 0.9828
-2.8584 -2.5806 -1.9978 0.9828
-2.6171 -2.8255 -1.9980 0.9828
-2.0740 -3.2464 -1.9985 0.9828
-1.7764 -3.4189 -1.9988 0.9828
-1.4646 -3.5643 -1.9991 0.9828
-1.1410 -3.6813 -1.9994 0.9828
-0.8083 -3.7691 -1.9998 0.9828
-0.4689 -3.8268 -2.0001 0.9828
-0.1258 -3.8541 -2.0005 0.9828
0.2186 -3.8507 -2.0009 0.9828
0.8996 -3.7521 -2.0017 0.9828
1.5526 -3.5339 -2.0024 0.9828
2.1565 -3.2030 -2.0032 0.9828
3.1425 -2.2481 -2.0045 0.9827
3.7319 -1.0076 -2.0054 0.9827
3.8072 -0.6708 -2.0055 0.9827
3.8663 0.0163 -2.0058 0.9827
3.8020 0.7030 -2.0058 0.9827
3.7241 1.0394 -2.0058 0.9827
3.4800 1.6844 -2.0057 0.9827
3.3157 1.9880 -2.0056 0.9827
3.1249 2.2756 -2.0054 0.9827
2.9092 2.5451 -2.0052 0.9827
1.5238 3.5496 -2.0039 0.9827
0.1862 3.8556 -2.0025 0.9828
-0.5017 3.8259 -2.0018 0.9828
-0.8408 3.7651 -2.0014 0.9828
-1.1730 3.6744 -2.0010 0.9828
-2.1028 3.2310 -1.9999 0.9828
-2.3822 3.0300 -1.9995 0.9828
-2.8817 2.5577 -1.9989 0.9828
-0.9846 0.6000 -0.5982 0.9948
-1.0637 0.3051 -0.5741 0.9950
-1.0878 0.2092 -0.5747 0.9950
-1.1031 0.1115 -0.5752 0.9950
-1.1062 0.0126 -0.5739 0.9950
-1.0591 -0.3816 -0.5840 0.9949
-1.0412 -0.4840 -0.5956 0.9948
-3.1476 -2.2178 -1.9975 0.9828
-2.7040 -2.7423 -1.9979 0.9828
-2.1743 -3.1798 -1.9984 0.9828
-0.9256 -3.7418 -1.9997 0.9828
-0.5883 -3.8101 -2.0000 0.9828
-0.2461 -3.8481 -2.0004 0.9828
0.4417 -3.8320 -2.0011 0.9828
0.7819 -3.7781 -2.0015 0.9828
1.1160 -3.6940 -2.0019 0.9828
1.4413 -3.5804 -2.0023 0.9828
2.3390 -3.0728 -2.0034 0.9827
2.6042 -2.8524 -2.0037 0.9827
2.8487 -2.6092 -2.0041 0.9827
3.2679 -2.0621 -2.0046 0.9827
3.5832 -1.4490 -2.0051 0.9827
3.7843 -0.7894 -2.0055 0.9827
3.8399 -0.4487 -2.0056 0.9827
3.8648 -0.1045 -2.0057 0.9827
3.7548 0.9225 -2.0058 0.9827
2.9874 2.4530 -2.0053 0.9827
2.2306 3.1553 -2.0046 0.9827
1.9400 3.3412 -2.0044 0.9827
1.6340 3.5004 -2.0041 0.9827
-0.0379 3.8594 -2.0023 0.9828
-1.3841 3.5997 -2.0008 0.9828
-1.6993 3.4613 -2.0004 0.9828
-2.8005 2.6466 -1.9990 0.9828
-3.0250 2.3859 -1.9987 0.9828
-1.0173 0.5416 -0.5979 0.9948
-1.0499 0.4438 -0.5913 0.9949
-1.0625 0.3410 -0.5789 0.9950
-1.0782 -0.2471 -0.5738 0.9950
-1.0622 -0.3457 -0.5795 0.9950
-1.0490 -0.4484 -0.5918 0.9949
-1.0153 -0.5457 -0.5980 0.9948
-1.6842 -3.4655 -1.9989 0.9828
-1.0420 -3.7108 -1.9995 0.9828
0.3217 -3.8437 -2.0010 0.9828
0.6634 -3.8004 -2.0014 0.9828
