ply
format ascii 1.0
element vertex 1594
property float32 x
property float32 y
property float32 z
property float32 I
end_header
-1.9883 4.1400 -2.0016 0.9802
-2.3491 3.9451 -2.0011 0.9802
-2.6909 3.7189 -2.0006 0.9802
-3.3072 3.1800 -1.9996 0.9802
-3.5768 2.8717 -1.9991 0.9802
-3.8178 2.5406 -1.9986 0.9802
-4.3516 1.4383 -1.9974 0.9802
-4.4618 1.0443 -1.9971 0.9802
-4.5429 -0.5816 -1.9961 0.9802
-4.4726 -0.9845 -1.9959 0.9802
-4.2262 -1.7633 -1.9957 0.9802
-4.0520 -2.1332 -1.9957 0.9802
-3.6087 -2.8194 -1.9958 0.9802
-3.0508 -3.4162 -1.9961 0.9802
-2.7342 -3.6751 -1.9963 0.9802
-2.0383 -4.1036 -1.9969 0.9802
-0.8796 -4.4992 -1.9979 0.9802
0.7500 -4.5268 -1.9998 0.9802
1.1511 -4.4430 -2.0003 0.9802
2.2880 -3.9828 -2.0018 0.9802
2.6348 -3.7638 -2.0023 0.9802
3.7883 -2.6073 -2.0043 0.9801
4.0067 -2.2595 -2.0047 0.9801
4.5472 -0.7162 -2.0062 0.9801
4.5936 -0.3078 -2.0065 0.9801
4.6033 0.1032 -2.0067 0.9801
4.2777 1.7069 -2.0072 0.9801
4.1085 2.0817 -2.0073 0.9801
3.9064 2.4398 -2.0072 0.9801
3.4104 3.0948 -2.0070 0.9801
3.1205 3.3863 -2.0069 0.9801
2.8058 3.6508 -2.0067 0.9801
2.4686 3.8860 -2.0064 0.9801
2.1119 4.0902 -2.0062 0.9801
1.7384 4.2616 -2.0058 0.9801
1.3511 4.3988 -2.0055 0.9801
0.5478 4.5671 -2.0047 0.9801
-1.0829 4.4661 -2.0028 0.9801
-1.4766 4.3506 -2.0023 0.9802
-1.8582 4.2005 -2.0018 0.9802
-2.2249 4.0169 -2.0012 0.9802
-3.4857 2.9823 -1.9992 0.9802
-4.1481 1.9517 -1.9979 0.9802
-4.4272 1.1832 -1.9972 0.9802
-4.5144 0.7835 -1.9969 0.9802
-4.5590 -0.4395 -1.9961 0.9802
-4.5013 -0.8443 -1.9959 0.9802
-4.4078 -1.2423 -1.9958 0.9802
-4.2792 -1.6305 -1.9958 0.9802
-4.1167 -2.0056 -1.9957 0.9802
-3.9214 -2.3649 -1.9957 0.9802
-3.4391 -3.0242 -1.9959 0.9802
-3.1559 -3.3192 -1.9961 0.9802
-2.1653 -4.0377 -1.9968 0.9802
-1.7969 -4.2154 -1.9971 0.9802
-1.4139 -4.3596 -1.9974 0.9802
-0.6171 -4.5433 -1.9982 0.9802
-0.2094 -4.5812 -1.9987 0.9802
0.2001 -4.5827 -1.9991 0.9802
1.7918 -4.2276 -2.0011 0.9802
2.1623 -4.0519 -2.0016 0.9802
2.8493 -3.6051 -2.0026 0.9801
3.7047 -2.7242 -2.0041 0.9801
4.1316 -2.0234 -2.0050 0.9801
4.2965 -1.6472 -2.0054 0.9801
4.5815 -0.4511 -2.0064 0.9801
4.5899 0.3702 -2.0068 0.9801
4.5389 0.7782 -2.0070 0.9801
4.4517 1.1800 -2.0071 0.9801
4.1715 1.9523 -2.0073 0.9801
3.9807 2.3166 -2.0073 0.9801
3.2249 3.2873 -2.0070 0.9801
2.9185 3.5615 -2.0068 0.9801
2.5890 3.8072 -2.0065 0.9801
2.2388 4.0224 -2.0063 0.9801
1.8708 4.2054 -2.0059 0.9801
1.4879 4.3548 -2.0056 0.9801
1.0934 4.4693 -2.0052 0.9801
-0.1287 4.5963 -2.0039 0.9801
-0.5381 4.5654 -2.0034 0.9801
-0.9429 4.4981 -2.0030 0.9801
-1.3400 4.3950 -2.0025 0.9802
-1.7262 4.2568 -2.0019 0.9802
-2.0985 4.0849 -2.0014 0.9802
-4.0854 2.0805 -1.9981 0.9802
-4.3884 1.3210 -1.9973 0.9802
-4.5518 0.5201 -1.9967 0.9802
-4.5707 -0.2968 -1.9962 0.9802
-4.4445 -1.1040 -1.9959 0.9802
-4.3281 -1.4960 -1.9958 0.9802
-3.7776 -2.5885 -1.9958 0.9802
-3.5318 -2.9153 -1.9959 0.9802
-3.2580 -3.2189 -1.9960 0.9802
-2.6347 -3.7473 -1.9964 0.9802
-2.2903 -3.9679 -1.9967 0.9802
-1.9275 -4.1570 -1.9970 0.9802
-1.5493 -4.3131 -1.9973 0.9802
-1.1587 -4.4349 -1.9977 0.9802
-0.7586 -4.5214 -1.9981 0.9802
-0.3524 -4.5721 -1.9985 0.9802
0.8712 -4.5054 -1.9999 0.9802
3.3492 -3.1489 -2.0035 0.9801
4.2426 -1.7805 -2.0052 0.9801
4.2304 1.8210 -2.0073 0.9801
3.8395 2.5437 -2.0072 0.9801
3.5971 2.8759 -2.0071 0.9801
3.3261 3.1850 -2.0070 0.9801
2.7067 3.7246 -2.0066 0.9801
2.3634 3.9507 -2.0064 0.9801
1.6233 4.3064 -2.0057 0.9801
0.8321 4.5246 -2.0050 0.9801
0.0149 4.5984 -2.0041 0.9801
-0.8020 4.5257 -2.0031 0.9801
-1.9701 4.1488 -2.0016 0.9802
-2.6745 3.7308 -2.0006 0.9802
-3.2932 3.1947 -1.9996 0.9802
-4.3452 1.4575 -1.9974 0.9802
-4.5336 0.6621 -1.9968 0.9802
-4.5779 -0.1539 -1.9963 0.9802
-4.4769 -0.9647 -1.9959 0.9802
-4.2339 -1.7447 -1.9957 0.9802
-3.8566 -2.4692 -1.9958 0.9802
-3.3568 -3.1155 -1.9960 0.9802
-2.4130 -3.8942 -1.9966 0.9802
-2.0564 -4.0945 -1.9969 0.9802
-1.6832 -4.2623 -1.9972 0.9802
-1.2966 -4.3962 -1.9975 0.9802
0.3230 -4.5760 -1.9993 0.9802
0.7300 -4.5300 -1.9997 0.9802
1.1314 -4.4480 -2.0002 0.9802
1.5240 -4.3304 -2.0007 0.9802
1.9047 -4.1783 -2.0013 0.9802
2.2704 -3.9928 -2.0018 0.9802
3.5268 -2.9497 -2.0038 0.9801
3.9966 -2.2771 -2.0047 0.9801
4.4595 -1.1385 -2.0058 0.9801
4.5440 -0.7362 -2.0062 0.9801
4.5922 -0.3281 -2.0064 0.9801
4.5784 0.4932 -2.0069 0.9801
4.5165 0.8996 -2.0071 0.9801
4.4185 1.2990 -2.0072 0.9801
4.1176 2.0635 -2.0073 0.9801
3.4240 3.0797 -2.0071 0.9801
2.8219 3.6384 -2.0067 0.9801
1.7572 4.2539 -2.0058 0.9801
0.9731 4.4967 -2.0051 0.9801
0.5680 4.5646 -2.0047 0.9801
0.1585 4.5961 -2.0042 0.9801
-1.8397 4.2087 -2.0018 0.9802
-2.2072 4.0268 -2.0013 0.9802
-2.5569 3.8129 -2.0008 0.9802
-2.8861 3.5687 -2.0003 0.9802
-3.7252 2.6753 -1.9988 0.9802
-4.4220 1.2028 -1.9972 0.9802
-4.5109 0.8034 -1.9969 0.9802
2.1588 3.7578 -2.0060 0.9811
1.4563 4.0803 -2.0054 0.9811
1.0864 4.1932 -2.0051 0.9811
0.7079 4.2726 -2.0047 0.9811
-0.0625 4.3286 -2.0038 0.9811
-0.8302 4.2467 -2.0029 0.9811
-1.2054 4.1547 -2.0025 0.9811
-1.9235 3.8726 -2.0015 0.9811
-2.2607 3.6847 -2.0010 0.9811
-2.5797 3.4675 -2.0005 0.9811
-3.4033 2.6590 -1.9992 0.9811
-3.6262 2.3443 -1.9987 0.9811
-3.8200 2.0112 -1.9983 0.9812
-3.9834 1.6621 -1.9979 0.9812
-4.1151 1.3000 -1.9976 0.9812
-4.2139 0.9276 -1.9973 0.9812
-4.2793 0.5479 -1.9970 0.9812
-4.3106 0.1641 -1.9967 0.9812
-4.3075 -0.2211 -1.9965 0.9812
-3.9574 -1.7131 -1.9961 0.9812
-3.7888 -2.0592 -1.9961 0.9812
-3.5901 -2.3890 -1.9961 0.9812
-2.2072 -3.7067 -1.9969 0.9812
-1.5139 -4.0411 -1.9975 0.9812
-0.7721 -4.2473 -1.9982 0.9812
-0.0051 -4.3186 -1.9990 0.9811
0.7626 -4.2528 -1.9999 0.9811
1.1392 -4.1687 -2.0004 0.9811
1.5068 -4.0515 -2.0009 0.9811
2.2038 -3.7211 -2.0018 0.9811
3.5988 -2.4072 -2.0042 0.9811
4.1101 -1.3693 -2.0053 0.9811
4.2166 -0.9975 -2.0056 0.9811
4.2893 -0.6175 -2.0059 0.9811
4.3279 -0.2325 -2.0062 0.9811
4.3319 0.1545 -2.0064 0.9811
4.3012 0.5403 -2.0066 0.9811
4.2362 0.9219 -2.0067 0.9811
3.8413 2.0107 -2.0069 0.9811
2.8951 3.2264 -2.0065 0.9811
2.2752 3.6887 -2.0061 0.9811
1.9369 3.8764 -2.0058 0.9811
0.0728 4.3288 -2.0040 0.9811
-0.3135 4.3171 -2.0036 0.9811
-1.8017 3.9311 -2.0017 0.9811
-2.4703 3.5467 -2.0007 0.9811
-3.0598 3.0499 -1.9998 0.9811
-3.3189 2.7642 -1.9993 0.9811
-3.5514 2.4567 -1.9989 0.9811
-3.7556 2.1297 -1.9985 0.9811
-3.9298 1.7859 -1.9981 0.9812
-4.0727 1.4280 -1.9977 0.9812
-4.1831 1.0588 -1.9974 0.9812
-4.2872 -0.4707 -1.9964 0.9812
-4.2278 -0.8511 -1.9963 0.9812
-4.1348 -1.2248 -1.9961 0.9812
-4.0090 -1.5886 -1.9961 0.9812
-3.8513 -1.9399 -1.9961 0.9812
-3.6629 -2.2757 -1.9961 0.9812
-3.4454 -2.5934 -1.9961 0.9812
-3.2006 -2.8905 -1.9963 0.9812
-2.9302 -3.1647 -1.9964 0.9812
-1.2770 -4.1225 -1.9977 0.9812
-0.9043 -4.2208 -1.9981 0.9812
0.2455 -4.3123 -1.9993 0.9811
0.6293 -4.2742 -1.9998 0.9811
1.3794 -4.0962 -2.0007 0.9811
1.7397 -3.9579 -2.0012 0.9811
2.0863 -3.7878 -2.0017 0.9811
3.0168 -3.1025 -2.0031 0.9811
3.2822 -2.8217 -2.0036 0.9811
3.5216 -2.5183 -2.0040 0.9811
3.9146 -1.8533 -2.0048 0.9811
4.0651 -1.4970 -2.0052 0.9811
4.2677 -0.7511 -2.0058 0.9811
4.3183 -0.3675 -2.0061 0.9811
4.3344 0.0191 -2.0064 0.9811
4.3158 0.4057 -2.0065 0.9811
3.5042 2.5529 -2.0068 0.9811
2.9945 3.1345 -2.0066 0.9811
2.3895 3.6159 -2.0062 0.9811
-0.1785 4.3251 -2.0037 0.9811
-1.3163 4.1206 -2.0023 0.9811
-2.0265 3.8193 -2.0014 0.9811
-2.6716 3.3968 -2.0004 0.9811
-2.9632 3.1443 -1.9999 0.9811
-3.6875 2.2461 -1.9986 0.9811
-4.0264 1.5546 -1.9978 0.9812
-4.1483 1.1891 -1.9975 0.9812
-4.3133 0.0483 -1.9967 0.9812
-4.2999 -0.3365 -1.9965 0.9812
-4.0567 -1.4626 -1.9961 0.9812
-3.9100 -1.8186 -1.9961 0.9812
-3.2892 -2.7891 -1.9962 0.9812
-2.4341 -3.5613 -1.9967 0.9812
-2.1070 -3.7647 -1.9970 0.9812
-1.0357 -4.1902 -1.9979 0.9812
-0.2748 -4.3092 -1.9987 0.9811
1.2507 -4.1370 -2.0005 0.9811
1.6151 -4.0099 -2.0010 0.9811
1.9668 -3.8508 -2.0015 0.9811
2.3029 -3.6609 -2.0020 0.9811
4.3327 -0.1163 -2.0063 0.9811
4.2853 0.6555 -2.0067 0.9811
4.2100 1.0352 -2.0068 0.9811
3.9593 1.7669 -2.0069 0.9811
3.0911 3.0395 -2.0067 0.9811
2.8074 3.3028 -2.0065 0.9811
2.1754 3.7482 -2.0060 0.9811
1.8321 3.9268 -2.0057 0.9811
1.1049 4.1884 -2.0051 0.9811
0.3430 4.3164 -2.0043 0.9811
-0.0433 4.3289 -2.0039 0.9811
-0.4292 4.3068 -2.0034 0.9811
-1.1870 4.1601 -2.0025 0.9811
-1.5530 4.0367 -2.0020 0.9811
-1.9064 3.8811 -2.0015 0.9811
-2.5644 3.4789 -2.0006 0.9811
-2.8638 3.2356 -2.0001 0.9811
-3.6158 2.3604 -1.9988 0.9811
-3.8112 2.0280 -1.9983 0.9812
-4.2768 0.5668 -1.9970 0.9812
-4.2034 -0.9642 -1.9962 0.9812
-4.1004 -1.3352 -1.9961 0.9812
-3.9649 -1.6956 -1.9961 0.9812
-3.7978 -2.0425 -1.9961 0.9812
-3.6006 -2.3731 -1.9961 0.9812
-3.3747 -2.6849 -1.9962 0.9812
-3.1219 -2.9754 -1.9963 0.9812
-2.8444 -3.2423 -1.9965 0.9812
-2.2235 -3.6969 -1.9969 0.9812
-1.8851 -3.8810 -1.9972 0.9812
-1.1660 -4.1555 -1.9978 0.9812
-0.7908 -4.2438 -1.9982 0.9812
0.3612 -4.3044 -1.9995 0.9811
1.1207 -4.1737 -2.0004 0.9811
1.8454 -3.9100 -2.0013 0.9811
2.1873 -3.7308 -2.0018 0.9811
2.5119 -3.5217 -2.0023 0.9811
2.8167 -3.2843 -2.0028 0.9811
3.0991 -3.0207 -2.0032 0.9811
3.3570 -2.7329 -2.0037 0.9811
3.7907 -2.0938 -2.0045 0.9811
3.9632 -1.7477 -2.0049 0.9811
4.1040 -1.3875 -2.0053 0.9811
4.2121 -1.0160 -2.0056 0.9811
4.3325 0.1354 -2.0064 0.9811
4.2402 0.9032 -2.0067 0.9811
4.1429 1.2778 -2.0068 0.9811
4.0126 1.6423 -2.0069 0.9811
3.8501 1.9937 -2.0069 0.9811
3.6569 2.3291 -2.0069 0.9811
3.4345 2.6459 -2.0068 0.9811
1.9540 3.8678 -2.0059 0.9811
0.8599 4.2450 -2.0048 0.9811
0.4777 4.3039 -2.0044 0.9811
0.0919 4.3284 -2.0040 0.9811
-0.2945 4.3184 -2.0036 0.9811
-0.6783 4.2740 -2.0031 0.9811
-1.0566 4.1955 -2.0027 0.9811
-1.7844 3.9391 -2.0017 0.9811
-2.4547 3.5577 -2.0007 0.9811
-2.7616 3.3237 -2.0003 0.9811
-3.9219 1.8032 -1.9981 0.9812
-4.0664 1.4459 -1.9977 0.9812
-4.2573 0.7002 -1.9971 0.9812
-4.3022 0.3176 -1.9968 0.9812
-4.3129 -0.0674 -1.9966 0.9812
-4.2892 -0.4517 -1.9964 0.9812
-4.2315 -0.8324 -1.9963 0.9812
-4.0160 -1.5709 -1.9961 0.9812
-3.8598 -1.9228 -1.9961 0.9812
-3.6729 -2.2595 -1.9961 0.9812
-3.4569 -2.5781 -1.9961 0.9812
-2.9441 -3.1517 -1.9964 0.9812
-2.3378 -3.6254 -1.9968 0.9812
-1.6569 -3.9843 -1.9974 0.9812
-1.2951 -4.1168 -1.9977 0.9812
-0.9229 -4.2167 -1.9981 0.9812
-0.5432 -4.2831 -1.9984 0.9812
0.6105 -4.2768 -1.9997 0.9811
1.3613 -4.1022 -2.0007 0.9811
1.7222 -3.9654 -2.0012 0.9811
2.0695 -3.7969 -2.0017 0.9811
2.7125 -3.3704 -2.0026 0.9811
3.0030 -3.1158 -2.0031 0.9811
3.2697 -2.8362 -2.0035 0.9811
3.5104 -2.5338 -2.0040 0.9811
3.7232 -2.2110 -2.0044 0.9811
3.9064 -1.8705 -2.0048 0.9811
4.0584 -1.5149 -2.0052 0.9811
4.2644 -0.7700 -2.0058 0.9811
4.3166 -0.3866 -2.0061 0.9811
4.2662 0.7702 -2.0067 0.9811
4.1808 1.1478 -2.0068 0.9811
3.9105 1.8724 -2.0069 0.9811
3.7279 2.2138 -2.0069 0.9811
3.5155 2.5374 -2.0069 0.9811
3.2750 2.8407 -2.0068 0.9811
2.7177 3.3768 -2.0064 0.9811
1.7261 3.9743 -2.0057 0.9811
0.9921 4.2163 -2.0050 0.9811
0.6120 4.2872 -2.0046 0.9811
-0.1594 4.3259 -2.0037 0.9811
-1.2981 4.1264 -2.0023 0.9811
-2.0097 3.8283 -2.0014 0.9811
-2.3425 3.6329 -2.0009 0.9811
-2.9494 3.1574 -1.9999 0.9811
-3.6776 2.2624 -1.9986 0.9811
-3.8639 1.9250 -1.9982 0.9812
-4.0195 1.5724 -1.9979 0.9812
-4.2335 0.8329 -1.9972 0.9812
-4.3130 0.0674 -1.9967 0.9812
-4.3014 -0.3175 -1.9965 0.9812
-4.0631 -1.4447 -1.9961 0.9812
-3.7417 -2.1436 -1.9961 0.9812
-3.0411 -3.0581 -1.9963 0.9812
-2.7564 -3.3175 -1.9965 0.9812
-1.7804 -3.9303 -1.9973 0.9812
-1.4230 -4.0741 -1.9976 0.9812
-1.0541 -4.1855 -1.9979 0.9812
-0.6767 -4.2637 -1.9983 0.9812
0.0916 -4.3179 -1.9991 0.9811
0.8578 -4.2348 -2.0000 0.9811
1.2324 -4.1424 -2.0005 0.9811
1.5973 -4.0170 -2.0010 0.9811
2.6057 -3.4533 -2.0024 0.9811
3.6521 -2.3261 -2.0043 0.9811
3.8458 -1.9915 -2.0047 0.9811
4.2380 -0.9027 -2.0057 0.9811
4.3023 -0.5212 -2.0060 0.9811
4.3321 -0.1354 -2.0063 0.9811
4.3274 0.2516 -2.0065 0.9811
4.2145 1.0166 -2.0068 0.9811
2.8220 3.2904 -2.0065 0.9811
2.1919 3.7386 -2.0060 0.9811
1.1234 4.1835 -2.0051 0.9811
0.7456 4.2663 -2.0047 0.9811
0.3621 4.3149 -2.0043 0.9811
-0.4102 4.3087 -2.0034 0.9811
-1.1687 4.1653 -2.0025 0.9811
-1.5352 4.0435 -2.0020 0.9811
-1.8893 3.8895 -2.0016 0.9811
-2.2281 3.7046 -2.0011 0.9811
-3.3798 2.6890 -1.9992 0.9811
-3.6054 2.3763 -1.9988 0.9811
-4.2057 0.9648 -1.9973 0.9812
-4.2743 0.5857 -1.9970 0.9812
-4.2755 -0.5666 -1.9964 0.9812
-3.9723 -1.6780 -1.9961 0.9812
-3.8068 -2.0257 -1.9961 0.9812
-3.6110 -2.3572 -1.9961 0.9812
-2.8586 -3.2297 -1.9964 0.9812
-1.9023 -3.8726 -1.9972 0.9812
-1.5495 -4.0275 -1.9975 0.9812
-1.1843 -4.1503 -1.9978 0.9812
-0.8095 -4.2402 -1.9982 0.9812
-0.0433 -4.3183 -1.9990 0.9811
0.3421 -4.3059 -1.9994 0.9811
1.8281 -3.9181 -2.0013 0.9811
2.4963 -3.5327 -2.0023 0.9811
2.8021 -3.2967 -2.0028 0.9811
3.5774 -2.4389 -2.0041 0.9811
3.7814 -2.1105 -2.0045 0.9811
4.0978 -1.4056 -2.0053 0.9811
4.2075 -1.0346 -2.0056 0.9811
4.2837 -0.6553 -2.0059 0.9811
4.3256 -0.2707 -2.0062 0.9811
4.3330 0.1163 -2.0064 0.9811
4.2441 0.8844 -2.0067 0.9811
4.1485 1.2595 -2.0068 0.9811
3.8589 1.9767 -2.0069 0.9811
3.6671 2.3129 -2.0069 0.9811
3.4461 2.6307 -2.0068 0.9811
3.1975 2.9275 -2.0067 0.9811
2.9235 3.2007 -2.0066 0.9811
1.9711 3.8592 -2.0059 0.9811
1.6188 4.0190 -2.0056 0.9811
1.2536 4.1467 -2.0052 0.9811
0.8786 4.2412 -2.0049 0.9811
0.4967 4.3018 -2.0045 0.9811
0.1110 4.3280 -2.0040 0.9811
-0.2754 4.3197 -2.0036 0.9811
-0.6594 4.2770 -2.0032 0.9811
-1.0381 4.2002 -2.0027 0.9811
-1.7670 3.9470 -2.0017 0.9811
-2.4390 3.5685 -2.0008 0.9811
-2.7469 3.3359 -2.0003 0.9811
-3.2944 2.7935 -1.9994 0.9811
-3.5297 2.4880 -1.9989 0.9811
-3.7367 2.1628 -1.9985 0.9811
-4.0600 1.4639 -1.9977 0.9812
-4.1737 1.0957 -1.9974 0.9812
-4.2542 0.7190 -1.9971 0.9812
-4.2912 -0.4328 -1.9964 0.9812
-4.1455 -1.1882 -1.9962 0.9812
-4.0229 -1.5532 -1.9961 0.9812
-3.6829 -2.2432 -1.9961 0.9812
-3.4682 -2.5628 -1.9961 0.9812
-3.2260 -2.8621 -1.9962 0.9812
-2.0222 -3.8111 -1.9971 0.9812
-0.1781 -4.3146 -1.9988 0.9811
0.2075 -4.3142 -1.9993 0.9811
0.5916 -4.2794 -1.9997 0.9811
1.3431 -4.1082 -2.0007 0.9811
2.3846 -3.6086 -2.0021 0.9811
2.6976 -3.3824 -2.0026 0.9811
2.9892 -3.1290 -2.0031 0.9811
3.4992 -2.5492 -2.0040 0.9811
3.8980 -1.8877 -2.0048 0.9811
3.9187 1.8551 -2.0069 0.9811
3.5267 2.5218 -2.0069 0.9811
3.2875 2.8262 -2.0068 0.9811
3.0221 3.1079 -2.0066 0.9811
2.4213 3.5947 -2.0062 0.9811
2.0908 3.7959 -2.0060 0.9811
1.3826 4.1057 -2.0053 0.9811
1.0107 4.2119 -2.0050 0.9811
0.2462 4.3228 -2.0042 0.9811
-0.1403 4.3266 -2.0038 0.9811
-0.5256 4.2958 -2.0033 0.9811
-1.6430 4.0006 -2.0019 0.9811
-1.9928 3.8372 -2.0014 0.9811
-2.3265 3.6433 -2.0009 0.9811
-3.4505 2.5972 -1.9991 0.9811
-3.6676 2.2786 -1.9986 0.9811
-3.8554 1.9420 -1.9982 0.9812
-4.0126 1.5901 -1.9979 0.9812
-4.2298 0.8516 -1.9972 0.9812
-4.2883 0.4708 -1.9969 0.9812
-4.3127 0.0865 -1.9967 0.9812
-4.2586 -0.6811 -1.9963 0.9812
-4.0694 -1.4268 -1.9961 0.9812
-3.9259 -1.7840 -1.9961 0.9812
-3.5465 -2.4532 -1.9961 0.9812
-3.0545 -3.0447 -1.9963 0.9812
-1.0726 -4.1808 -1.9979 0.9812
-0.3128 -4.3065 -1.9987 0.9811
0.4575 -4.2955 -1.9996 0.9811
1.2141 -4.1478 -2.0005 0.9811
1.5796 -4.0239 -2.0010 0.9811
3.1662 -2.9507 -2.0034 0.9811
3.4176 -2.6571 -2.0038 0.9811
3.6417 -2.3422 -2.0042 0.9811
3.8369 -2.0084 -2.0046 0.9811
4.0015 -1.6585 -2.0050 0.9811
4.1342 -1.2952 -2.0054 0.9811
4.2999 -0.5402 -2.0060 0.9811
4.2908 0.6176 -2.0066 0.9811
4.1133 1.3704 -2.0069 0.9811
3.1178 3.0121 -2.0067 0.9811
2.8365 3.2779 -2.0065 0.9811
2.5325 3.5175 -2.0063 0.9811
2.2084 3.7289 -2.0061 0.9811
1.8668 3.9105 -2.0058 0.9811
1.5103 4.0608 -2.0055 0.9811
1.1419 4.1786 -2.0051 0.9811
0.3811 4.3133 -2.0043 0.9811
-0.0051 4.3292 -2.0039 0.9811
-1.8721 3.8979 -2.0016 0.9811
-3.1140 2.9942 -1.9997 0.9811
-3.3679 2.7040 -1.9992 0.9811
-3.5949 2.3923 -1.9988 0.9811
-3.7932 2.0617 -1.9984 0.9812
-4.0976 1.3544 -1.9976 0.9812
-4.3081 0.2211 -1.9968 0.9812
-4.2118 -0.9270 -1.9962 0.9812
-4.1121 -1.2990 -1.9961 0.9812
-3.9797 -1.6605 -1.9961 0.9812
-3.3983 -2.6550 -1.9962 0.9812
-3.1481 -2.9477 -1.9963 0.9812
-2.5747 -3.4607 -1.9966 0.9812
-2.2560 -3.6770 -1.9969 0.9812
-1.5672 -4.0206 -1.9974 0.9812
-0.8283 -4.2365 -1.9982 0.9812
-0.0624 -4.3180 -1.9990 0.9811
0.3231 -4.3074 -1.9994 0.9811
1.0838 -4.1833 -2.0003 0.9811
1.4530 -4.0710 -2.0008 0.9811
2.1542 -3.7498 -2.0018 0.9811
2.4807 -3.5436 -2.0023 0.9811
2.7875 -3.3090 -2.0027 0.9811
3.0723 -3.0479 -2.0032 0.9811
3.5665 -2.4546 -2.0041 0.9811
3.7720 -2.1272 -2.0045 0.9811
3.9475 -1.7826 -2.0049 0.9811
4.0915 -1.4236 -2.0053 0.9811
4.3244 -0.2898 -2.0062 0.9811
4.3335 0.0971 -2.0064 0.9811
4.3079 0.4833 -2.0066 0.9811
4.2480 0.8657 -2.0067 0.9811
4.1540 1.2412 -2.0068 0.9811
3.8676 1.9596 -2.0069 0.9811
3.6773 2.2967 -2.0069 0.9811
3.4577 2.6155 -2.0068 0.9811
3.2105 2.9133 -2.0067 0.9811
2.9376 3.1878 -2.0066 0.9811
2.6413 3.4368 -2.0064 0.9811
1.2719 4.1411 -2.0052 0.9811
0.8973 4.2373 -2.0049 0.9811
-0.2563 4.3210 -2.0036 0.9811
-1.0195 4.2047 -2.0027 0.9811
-1.3902 4.0961 -2.0022 0.9811
-1.7496 3.9548 -2.0017 0.9811
-2.0948 3.7821 -2.0013 0.9811
-2.7322 3.3481 -2.0003 0.9811
-3.5187 2.5036 -1.9989 0.9811
-3.9059 1.8378 -1.9981 0.9812
-4.1689 1.1142 -1.9974 0.9812
-4.2510 0.7378 -1.9971 0.9812
-4.2993 0.3556 -1.9969 0.9812
-4.3133 -0.0292 -1.9966 0.9812
-4.2931 -0.4138 -1.9964 0.9812
-4.2387 -0.7950 -1.9963 0.9812
-4.1507 -1.1699 -1.9962 0.9812
-4.0297 -1.5354 -1.9961 0.9812
-3.6927 -2.2269 -1.9961 0.9812
-3.2386 -2.8478 -1.9962 0.9812
-2.6815 -3.3785 -1.9966 0.9812
-2.3697 -3.6046 -1.9968 0.9812
-2.0390 -3.8021 -1.9970 0.9812
-1.6920 -3.9694 -1.9973 0.9812
-1.3314 -4.1052 -1.9977 0.9812
-0.9601 -4.2083 -1.9980 0.9812
0.5727 -4.2820 -1.9997 0.9811
1.6870 -3.9804 -2.0011 0.9811
2.3686 -3.6191 -2.0021 0.9811
2.9753 -3.1421 -2.0030 0.9811
3.2445 -2.8649 -2.0035 0.9811
3.8896 -1.9049 -2.0048 0.9811
4.1677 -1.1839 -2.0055 0.9811
4.2573 -0.8076 -2.0058 0.9811
4.3130 -0.4247 -2.0061 0.9811
4.3342 -0.0383 -2.0063 0.9811
4.2728 0.7325 -2.0067 0.9811
4.1907 1.1108 -2.0068 0.9811
4.0751 1.4802 -2.0069 0.9811
3.9269 1.8378 -2.0069 0.9811
2.7475 3.3527 -2.0065 0.9811
0.6498 4.2817 -2.0046 0.9811
-0.5066 4.2982 -2.0033 0.9811
-0.8877 4.2349 -2.0029 0.9811
-1.2616 4.1379 -2.0024 0.9811
-1.6253 4.0079 -2.0019 0.9811
-2.3104 3.6535 -2.0009 0.9811
-2.6265 3.4321 -2.0005 0.9811
-2.9214 3.1834 -2.0000 0.9811
-3.6575 2.2948 -1.9987 0.9811
-4.1322 1.2439 -1.9975 0.9812
-4.2261 0.8703 -1.9972 0.9812
-4.2862 0.4898 -1.9969 0.9812
-4.3123 0.1055 -1.9967 0.9812
-4.3041 -0.2795 -1.9965 0.9812
-4.1853 -1.0396 -1.9962 0.9812
-4.0757 -1.4088 -1.9961 0.9812
-3.9337 -1.7667 -1.9961 0.9812
-3.7605 -2.1105 -1.9961 0.9812
-3.5573 -2.4375 -1.9961 0.9812
-3.3259 -2.7452 -1.9962 0.9812
-1.8150 -3.9144 -1.9972 0.9812
-0.7144 -4.2575 -1.9983 0.9812
-0.3318 -4.3051 -1.9987 0.9811
0.0535 -4.3184 -1.9991 0.9811
1.1957 -4.1531 -2.0005 0.9811
1.5617 -4.0308 -2.0010 0.9811
2.5750 -3.4760 -2.0024 0.9811
2.8755 -3.2333 -2.0029 0.9811
3.4058 -2.6721 -2.0038 0.9811
3.8280 -2.0253 -2.0046 0.9811
3.9941 -1.6761 -2.0050 0.9811
4.2298 -0.9401 -2.0057 0.9811
4.2974 -0.5592 -2.0060 0.9811
4.3307 -0.1737 -2.0062 0.9811
4.3294 0.2133 -2.0065 0.9811
4.2935 0.5987 -2.0066 0.9811
4.1193 1.3522 -2.0069 0.9811
3.9824 1.7143 -2.0069 0.9811
3.8136 2.0626 -2.0069 0.9811
2.8509 3.2654 -2.0065 0.9811
2.5481 3.5063 -2.0063 0.9811
1.8840 3.9022 -2.0058 0.9811
1.5282 4.0541 -2.0055 0.9811
1.1603 4.1735 -2.0051 0.9811
0.0140 4.3292 -2.0039 0.9811
-0.7551 4.2609 -2.0030 0.9811
-1.8548 3.9062 -2.0016 0.9811
-2.1954 3.7242 -2.0011 0.9811
-2.8208 3.2733 -2.0002 0.9811
-3.5843 2.4081 -1.9988 0.9811
-3.7841 2.0784 -1.9984 0.9812
-4.0916 1.3725 -1.9977 0.9812
-4.1970 1.0019 -1.9973 0.9812
-4.2690 0.6234 -1.9970 0.9812
-4.3071 0.2402 -1.9968 0.9812
-4.3108 -0.1450 -1.9966 0.9812
-3.9870 -1.6429 -1.9961 0.9812
-3.8246 -1.9920 -1.9961 0.9812
-3.6317 -2.3252 -1.9961 0.9812
-3.1610 -2.9338 -1.9963 0.9812
-2.5899 -3.4493 -1.9966 0.9812
-2.2722 -3.6670 -1.9969 0.9812
-1.5850 -4.0136 -1.9974 0.9812
-0.8469 -4.2328 -1.9981 0.9812
-0.4661 -4.2923 -1.9985 0.9811
0.6873 -4.2654 -1.9998 0.9811
1.7933 -3.9340 -2.0013 0.9811
2.7729 -3.3212 -2.0027 0.9811
3.0587 -3.0614 -2.0032 0.9811
3.5556 -2.4703 -2.0041 0.9811
3.7626 -2.1438 -2.0045 0.9811
3.9395 -1.8000 -2.0049 0.9811
4.0851 -1.4417 -2.0052 0.9811
4.1981 -1.0717 -2.0056 0.9811
4.3230 -0.3088 -2.0062 0.9811
4.3338 0.0780 -2.0064 0.9811
4.2517 0.8469 -2.0067 0.9811
4.0340 1.5890 -2.0069 0.9811
3.8762 1.9425 -2.0069 0.9811
3.4692 2.6002 -2.0068 0.9811
3.2233 2.8991 -2.0067 0.9811
2.6565 3.4251 -2.0064 0.9811
2.3401 3.6480 -2.0062 0.9811
2.0051 3.8417 -2.0059 0.9811
1.2902 4.1355 -2.0053 0.9811
0.9161 4.2333 -2.0049 0.9811
0.5347 4.2973 -2.0045 0.9811
0.1493 4.3270 -2.0041 0.9811
-0.2373 4.3221 -2.0036 0.9811
-0.6217 4.2827 -2.0032 0.9811
-1.0010 4.2092 -2.0027 0.9811
-1.3721 4.1022 -2.0023 0.9811
-1.7321 3.9625 -2.0018 0.9811
-2.0781 3.7913 -2.0013 0.9811
-2.4074 3.5900 -2.0008 0.9811
-3.0056 3.1036 -1.9999 0.9811
-3.2696 2.8226 -1.9994 0.9811
-4.0470 1.4997 -1.9978 0.9812
-4.1639 1.1326 -1.9974 0.9812
2.0369 3.5456 -2.0058 0.9819
1.7123 3.7126 -2.0055 0.9819
1.3741 3.8500 -2.0052 0.9820
1.0251 3.9565 -2.0049 0.9820
0.3057 4.0742 -2.0041 0.9820
-0.0589 4.0844 -2.0037 0.9820
-0.4229 4.0620 -2.0033 0.9820
-0.7834 4.0073 -2.0029 0.9820
-1.1374 3.9205 -2.0024 0.9820
-1.8151 3.6544 -2.0015 0.9820
-2.4344 3.2722 -2.0006 0.9820
-3.2118 2.5094 -1.9993 0.9820
-3.6051 1.8980 -1.9985 0.9820
-3.9770 0.8754 -1.9975 0.9820
-4.0654 -0.2086 -1.9968 0.9820
-4.0302 -0.5704 -1.9966 0.9820
-3.5758 -1.9435 -1.9964 0.9820
-3.3883 -2.2547 -1.9964 0.9820
-3.1738 -2.5480 -1.9965 0.9820
-2.6709 -3.0718 -1.9967 0.9820
-2.3865 -3.2981 -1.9969 0.9820
-1.4287 -3.8138 -1.9977 0.9820
-1.0831 -3.9267 -1.9980 0.9820
-0.7286 -4.0083 -1.9984 0.9820
-0.3683 -4.0581 -1.9988 0.9820
0.3588 -4.0606 -1.9996 0.9820
0.7197 -4.0133 -2.0000 0.9820
1.0750 -3.9340 -2.0005 0.9820
1.7577 -3.6821 -2.0014 0.9820
2.3850 -3.3127 -2.0023 0.9820
3.1790 -2.5647 -2.0036 0.9820
3.3958 -2.2714 -2.0040 0.9820
3.8781 -1.2921 -2.0051 0.9820
3.9785 -0.9411 -2.0054 0.9820
4.0835 -0.2193 -2.0059 0.9819
4.0872 0.1458 -2.0061 0.9819
4.0583 0.5098 -2.0063 0.9819
3.7790 1.5662 -2.0066 0.9819
3.2294 2.5107 -2.0065 0.9819
1.8275 3.6575 -2.0056 0.9819
1.4938 3.8054 -2.0053 0.9820
1.1483 3.9228 -2.0050 0.9820
0.7936 4.0089 -2.0046 0.9820
0.4328 4.0630 -2.0043 0.9820
-2.8875 2.8782 -1.9999 0.9820
-3.3516 2.3184 -1.9990 0.9820
-3.5443 2.0098 -1.9986 0.9820
-3.7087 1.6854 -1.9983 0.9820
-3.8436 1.3476 -1.9979 0.9820
-4.0701 -0.0815 -1.9969 0.9820
-4.0462 -0.4442 -1.9967 0.9820
-3.9902 -0.8033 -1.9965 0.9820
-3.7837 -1.4993 -1.9964 0.9820
-3.4571 -2.1478 -1.9964 0.9820
-3.2518 -2.4476 -1.9964 0.9820
-3.0207 -2.7281 -1.9965 0.9820
-2.7655 -2.9868 -1.9967 0.9820
-2.4883 -3.2219 -1.9969 0.9820
-2.1912 -3.4313 -1.9971 0.9820
-0.8534 -3.9833 -1.9983 0.9820
-0.1321 -4.0732 -1.9990 0.9820
0.2317 -4.0696 -1.9994 0.9820
0.5939 -4.0335 -1.9999 0.9820
0.9515 -3.9653 -2.0003 0.9820
2.2802 -3.3853 -2.0021 0.9820
2.8467 -2.9276 -2.0030 0.9820
3.0971 -2.6626 -2.0034 0.9820
3.3230 -2.3762 -2.0039 0.9820
3.9470 -1.0649 -2.0053 0.9820
4.0268 -0.7087 -2.0056 0.9819
4.0745 -0.3468 -2.0059 0.9819
4.0896 0.0180 -2.0061 0.9819
4.0721 0.3828 -2.0063 0.9819
3.8261 1.4474 -2.0066 0.9819
3.6818 1.7829 -2.0066 0.9819
3.5081 2.1042 -2.0066 0.9819
3.3063 2.4087 -2.0065 0.9819
3.0781 2.6938 -2.0065 0.9819
2.5501 3.1974 -2.0061 0.9819
2.2545 3.4118 -2.0059 0.9819
1.9410 3.5988 -2.0057 0.9819
0.9185 3.9824 -2.0048 0.9820
-0.5317 4.0490 -2.0032 0.9820
-0.8905 3.9845 -2.0027 0.9820
-1.2421 3.8883 -2.0023 0.9820
-1.9123 3.6042 -2.0014 0.9820
-2.2257 3.4184 -2.0009 0.9820
-2.5211 3.2056 -2.0005 0.9820
-3.0493 2.7054 -1.9996 0.9820
-3.2777 2.4222 -1.9992 0.9820
-3.4800 2.1197 -1.9988 0.9820
-4.0509 0.4086 -1.9972 0.9820
-4.0708 0.0456 -1.9969 0.9820
-4.0582 -0.3176 -1.9967 0.9820
-3.9367 -1.0335 -1.9965 0.9820
-3.3266 -2.3448 -1.9964 0.9820
-2.8574 -2.8989 -1.9966 0.9820
-2.5876 -3.1425 -1.9968 0.9820
-2.2973 -3.3611 -1.9970 0.9820
-1.9886 -3.5530 -1.9972 0.9820
-1.3260 -3.8509 -1.9978 0.9820
-0.9774 -3.9545 -1.9981 0.9820
0.1045 -4.0745 -1.9993 0.9820
0.4676 -4.0498 -1.9997 0.9820
1.5241 -3.7840 -2.0010 0.9820
1.8559 -3.6338 -2.0015 0.9820
2.7536 -3.0149 -2.0029 0.9820
3.4557 -2.1796 -2.0041 0.9820
3.7894 -1.5315 -2.0049 0.9820
3.9116 -1.1876 -2.0052 0.9820
4.0880 -0.1097 -2.0060 0.9819
3.8694 1.3272 -2.0066 0.9819
3.3800 2.3042 -2.0066 0.9819
3.1608 2.5964 -2.0065 0.9819
2.6488 3.1163 -2.0062 0.9819
2.0526 3.5366 -2.0058 0.9819
1.7287 3.7050 -2.0055 0.9819
0.3237 4.0729 -2.0041 0.9820
-0.4050 4.0639 -2.0033 0.9820
-0.7657 4.0107 -2.0029 0.9820
-2.1180 3.4866 -2.0011 0.9820
-2.4200 3.2830 -2.0006 0.9820
-2.7025 3.0534 -2.0002 0.9820
-2.9635 2.7996 -1.9997 0.9820
-3.2007 2.5235 -1.9993 0.9820
-3.4123 2.2275 -1.9989 0.9820
-3.5967 1.9139 -1.9985 0.9820
-3.9731 0.8930 -1.9975 0.9820
-4.0364 0.5350 -1.9972 0.9820
-4.0663 -0.1907 -1.9968 0.9820
-4.0327 -0.5526 -1.9966 0.9820
-3.8700 -1.2602 -1.9964 0.9820
-3.7421 -1.6003 -1.9964 0.9820
-3.5844 -1.9277 -1.9964 0.9820
-3.1850 -2.5340 -1.9965 0.9820
-2.9465 -2.8082 -1.9966 0.9820
-2.6845 -3.0600 -1.9967 0.9820
-2.4011 -3.2876 -1.9969 0.9820
-2.0985 -3.4890 -1.9972 0.9820
-1.7791 -3.6628 -1.9974 0.9820
-1.4456 -3.8074 -1.9977 0.9820
0.3408 -4.0621 -1.9996 0.9820
0.7019 -4.0164 -2.0000 0.9820
1.4050 -3.8295 -2.0009 0.9820
1.7414 -3.6897 -2.0013 0.9820
2.3703 -3.3231 -2.0023 0.9820
2.9244 -2.8504 -2.0031 0.9820
3.3857 -2.2864 -2.0040 0.9820
3.5768 -1.9757 -2.0044 0.9820
3.9743 -0.9587 -2.0054 0.9820
4.0605 0.4919 -2.0063 0.9819
3.7859 1.5495 -2.0066 0.9819
3.6326 1.8811 -2.0066 0.9819
3.2404 2.4965 -2.0065 0.9819
3.0047 2.7754 -2.0064 0.9819
2.1621 3.4709 -2.0059 0.9819
1.1656 3.9177 -2.0050 0.9820
0.0867 4.0843 -2.0039 0.9820
-1.3459 3.8534 -2.0021 0.9820
-2.0082 3.5513 -2.0012 0.9820
-2.3164 3.3573 -2.0008 0.9820
-2.6060 3.1366 -2.0003 0.9820
-2.8748 2.8910 -1.9999 0.9820
-3.1205 2.6225 -1.9995 0.9820
-3.5354 2.0255 -1.9987 0.9820
-3.7013 1.7018 -1.9983 0.9820
-3.9435 1.0167 -1.9976 0.9820
-4.0179 0.6608 -1.9973 0.9820
-4.0603 0.2998 -1.9971 0.9820
-4.0704 -0.0636 -1.9969 0.9820
-3.9075 -1.1387 -1.9964 0.9820
-3.7903 -1.4826 -1.9964 0.9820
-3.4665 -2.1325 -1.9964 0.9820
-3.2626 -2.4333 -1.9964 0.9820
-2.2064 -3.4216 -1.9971 0.9820
-0.8710 -3.9795 -1.9983 0.9820
-0.1501 -4.0725 -1.9990 0.9820
0.9340 -3.9695 -2.0003 0.9820
1.9529 -3.5830 -2.0016 0.9820
2.8337 -2.9401 -2.0030 0.9820
3.0853 -2.6762 -2.0034 0.9820
3.5131 -2.0863 -2.0042 0.9820
3.6859 -1.7649 -2.0046 0.9820
4.0236 -0.7265 -2.0056 0.9819
4.0729 -0.3648 -2.0058 0.9819
4.0253 0.7267 -2.0064 0.9819
3.9446 1.0829 -2.0065 0.9819
3.8324 1.4305 -2.0066 0.9819
3.5173 2.0887 -2.0066 0.9819
1.2875 3.8796 -2.0051 0.9820
0.2143 4.0798 -2.0040 0.9820
-0.1504 4.0819 -2.0036 0.9820
-0.5138 4.0513 -2.0032 0.9820
-1.5670 3.7682 -2.0018 0.9820
-1.8964 3.6126 -2.0014 0.9820
-2.2106 3.4283 -2.0009 0.9820
-2.7833 2.9796 -2.0000 0.9820
-3.2670 2.4366 -1.9992 0.9820
-3.4706 2.1351 -1.9988 0.9820
-3.7934 1.4839 -1.9981 0.9820
-3.9100 1.1395 -1.9977 0.9820
-3.9955 0.7860 -1.9974 0.9820
-4.0491 0.4265 -1.9972 0.9820
-4.0706 0.0636 -1.9969 0.9820
-3.8347 -1.3635 -1.9964 0.9820
-3.6978 -1.7001 -1.9964 0.9820
-3.3370 -2.3301 -1.9964 0.9820
-3.1159 -2.6186 -1.9965 0.9820
-2.8702 -2.8862 -1.9966 0.9820
-2.3121 -3.3509 -1.9970 0.9820
-1.6803 -3.7093 -1.9975 0.9820
-0.9949 -3.9501 -1.9981 0.9820
-0.6387 -4.0238 -1.9985 0.9820
0.0865 -4.0749 -1.9993 0.9820
0.4497 -4.0518 -1.9997 0.9820
1.1630 -3.9091 -2.0006 0.9820
1.5073 -3.7907 -2.0010 0.9820
2.4588 -3.2586 -2.0024 0.9820
2.7403 -3.0270 -2.0028 0.9820
3.0000 -2.7711 -2.0033 0.9820
3.4460 -2.1949 -2.0041 0.9820
3.6288 -1.8791 -2.0045 0.9820
3.7826 -1.5482 -2.0048 0.9820
3.9987 -0.8518 -2.0055 0.9819
4.0593 -0.4918 -2.0058 0.9819
4.0459 0.6006 -2.0064 0.9819
3.9764 0.9592 -2.0065 0.9819
3.5809 1.9778 -2.0066 0.9819
3.3901 2.2893 -2.0066 0.9819
3.1723 2.5824 -2.0065 0.9819
2.9291 2.8549 -2.0064 0.9819
2.6626 3.1046 -2.0062 0.9819
2.3748 3.3294 -2.0060 0.9819
2.0682 3.5275 -2.0058 0.9819
1.4081 3.8378 -2.0052 0.9820
1.0600 3.9474 -2.0049 0.9820
0.7036 4.0255 -2.0045 0.9820
-0.0229 4.0849 -2.0038 0.9820
-1.1028 3.9305 -2.0025 0.9820
-1.4486 3.8156 -2.0020 0.9820
-1.7828 3.6704 -2.0015 0.9820
-2.1026 3.4959 -2.0011 0.9820
-2.4055 3.2937 -2.0006 0.9820
-2.9511 2.8126 -1.9998 0.9820
-3.1896 2.5377 -1.9993 0.9820
-3.4025 2.2426 -1.9989 0.9820
-3.5883 1.9298 -1.9985 0.9820
-3.7454 1.6018 -1.9982 0.9820
-3.8727 1.2611 -1.9978 0.9820
-3.9692 0.9105 -1.9975 0.9820
-4.0340 0.5528 -1.9973 0.9820
-4.0667 0.1907 -1.9970 0.9820
-4.0671 -0.1727 -1.9968 0.9820
-4.0352 -0.5348 -1.9966 0.9820
-3.8755 -1.2431 -1.9964 0.9820
-2.4155 -3.2769 -1.9969 0.9820
-2.1139 -3.4797 -1.9971 0.9820
-1.7953 -3.6549 -1.9974 0.9820
-1.4624 -3.8010 -1.9977 0.9820
-0.7640 -4.0017 -1.9984 0.9820
0.3229 -4.0635 -1.9995 0.9820
0.6842 -4.0194 -2.0000 0.9820
1.3881 -3.8356 -2.0009 0.9820
2.0484 -3.5296 -2.0018 0.9820
2.3556 -3.3335 -2.0022 0.9820
2.6442 -3.1108 -2.0027 0.9820
3.1562 -2.5926 -2.0036 0.9820
3.3755 -2.3013 -2.0040 0.9820
3.5680 -1.9914 -2.0044 0.9820
3.7321 -1.6655 -2.0047 0.9820
3.9700 -0.9762 -2.0054 0.9820
4.0418 -0.6183 -2.0057 0.9819
4.0813 -0.2554 -2.0059 0.9819
4.0883 0.1097 -2.0061 0.9819
4.0044 0.8345 -2.0064 0.9819
3.6409 1.8650 -2.0066 0.9819
3.4600 2.1823 -2.0066 0.9819
3.2515 2.4821 -2.0065 0.9819
2.4778 3.2537 -2.0061 0.9819
1.8598 3.6413 -2.0056 0.9819
1.5274 3.7921 -2.0053 0.9820
1.1829 3.9126 -2.0050 0.9820
0.8290 4.0018 -2.0047 0.9820
0.4687 4.0591 -2.0043 0.9820
0.1048 4.0839 -2.0039 0.9820
-0.6223 4.0358 -2.0031 0.9820
-0.9796 3.9633 -2.0026 0.9820
-1.3288 3.8593 -2.0022 0.9820
-1.6674 3.7246 -2.0017 0.9820
-2.3016 3.3675 -2.0008 0.9820
-2.5922 3.1481 -2.0003 0.9820
-2.8620 2.9037 -1.9999 0.9820
-3.3310 2.3480 -1.9991 0.9820
-3.5265 2.0411 -1.9987 0.9820
-3.6938 1.7181 -1.9983 0.9820
-3.9390 1.0341 -1.9976 0.9820
-4.0149 0.6786 -1.9974 0.9820
-4.0707 -0.0456 -1.9969 0.9820
-4.0500 -0.4085 -1.9967 0.9820
-3.9971 -0.7680 -1.9966 0.9820
-3.9125 -1.1214 -1.9965 0.9820
-3.7968 -1.4659 -1.9964 0.9820
-3.6508 -1.7987 -1.9964 0.9820
-3.4759 -2.1171 -1.9964 0.9820
-3.2733 -2.4188 -1.9964 0.9820
-3.0446 -2.7013 -1.9965 0.9820
-2.7918 -2.9623 -1.9967 0.9820
-1.9085 -3.5968 -1.9973 0.9820
-1.5803 -3.7532 -1.9976 0.9820
-1.2394 -3.8798 -1.9979 0.9820
-0.8886 -3.9756 -1.9982 0.9820
-0.5305 -4.0397 -1.9986 0.9820
-0.1681 -4.0717 -1.9990 0.9820
0.9165 -3.9735 -2.0003 0.9820
1.2675 -3.8768 -2.0007 0.9820
1.6086 -3.7491 -2.0012 0.9820
1.9370 -3.5915 -2.0016 0.9820
2.2502 -3.4052 -2.0021 0.9820
3.0734 -2.6898 -2.0034 0.9820
3.3018 -2.4054 -2.0038 0.9820
3.8229 -1.4463 -2.0049 0.9820
4.0203 -0.7442 -2.0056 0.9819
4.0896 -0.0181 -2.0061 0.9819
4.0753 0.3468 -2.0062 0.9819
4.0284 0.7090 -2.0064 0.9819
3.5265 2.0732 -2.0066 0.9819
3.1018 2.6666 -2.0065 0.9819
2.8514 2.9324 -2.0063 0.9819
1.9727 3.5816 -2.0057 0.9819
0.9537 3.9742 -2.0048 0.9820
-0.4959 4.0536 -2.0032 0.9820
-0.8553 3.9923 -2.0028 0.9820
-1.2077 3.8992 -2.0023 0.9820
-1.5504 3.7751 -2.0019 0.9820
-2.1955 3.4380 -2.0010 0.9820
-2.4928 3.2278 -2.0005 0.9820
-3.4612 2.1504 -1.9988 0.9820
-3.9050 1.1567 -1.9977 0.9820
-3.9920 0.8037 -1.9975 0.9820
-3.9457 -0.9987 -1.9965 0.9820
-3.8407 -1.3466 -1.9964 0.9820
-3.3472 -2.3153 -1.9964 0.9820
-3.1275 -2.6048 -1.9965 0.9820
-2.6153 -3.1195 -1.9968 0.9820
-1.6967 -3.7018 -1.9975 0.9820
-1.3599 -3.8390 -1.9978 0.9820
-0.2952 -4.0642 -1.9989 0.9820
0.0685 -4.0752 -1.9993 0.9820
0.4318 -4.0537 -1.9997 0.9820
1.4906 -3.7973 -2.0010 0.9820
1.8237 -3.6500 -2.0015 0.9820
2.1425 -3.4736 -2.0019 0.9820
2.7268 -3.0390 -2.0028 0.9820
2.9877 -2.7843 -2.0033 0.9820
3.2248 -2.5072 -2.0037 0.9820
3.6204 -1.8951 -2.0045 0.9820
3.7757 -1.5649 -2.0048 0.9820
3.9949 -0.8694 -2.0055 0.9819
4.0485 0.5828 -2.0063 0.9819
3.7502 1.6340 -2.0066 0.9819
3.5896 1.9620 -2.0066 0.9819
2.3895 3.3189 -2.0060 0.9819
2.0837 3.5184 -2.0058 0.9819
1.7614 3.6897 -2.0055 0.9819
1.4250 3.8315 -2.0052 0.9820
-0.0048 4.0850 -2.0038 0.9820
-0.7302 4.0174 -2.0029 0.9820
-1.0854 3.9354 -2.0025 0.9820
-1.4318 3.8220 -2.0020 0.9820
-2.3909 3.3043 -2.0007 0.9820
-2.6755 3.0772 -2.0002 0.9820
-2.9387 2.8257 -1.9998 0.9820
-3.5797 1.9457 -1.9986 0.9820
-3.7383 1.6183 -1.9982 0.9820
-3.8671 1.2782 -1.9979 0.9820
-4.0315 0.5706 -1.9973 0.9820
-4.0659 0.2087 -1.9970 0.9820
-3.8810 -1.2260 -1.9964 0.9820
-3.6013 -1.8959 -1.9964 0.9820
-3.2073 -2.5058 -1.9965 0.9820
-2.4300 -3.2662 -1.9969 0.9820
-2.1292 -3.4703 -1.9971 0.9820
-1.8114 -3.6469 -1.9974 0.9820
-1.4791 -3.7944 -1.9977 0.9820
-0.7817 -3.9982 -1.9983 0.9820
-0.0588 -4.0750 -1.9991 0.9820
0.3049 -4.0649 -1.9995 0.9820
0.6664 -4.0224 -2.0000 0.9820
1.7087 -3.7049 -2.0013 0.9820
2.0328 -3.5385 -2.0018 0.9820
2.6304 -3.1225 -2.0027 0.9820
3.1447 -2.6065 -2.0035 0.9820
3.3653 -2.3161 -2.0039 0.9820
3.7247 -1.6820 -2.0047 0.9820
3.8606 -1.3433 -2.0050 0.9820
3.9656 -0.9937 -2.0054 0.9820
4.0802 -0.2734 -2.0059 0.9819
4.0887 0.0916 -2.0061 0.9819
4.0080 0.8168 -2.0064 0.9819
3.9194 1.1711 -2.0065 0.9819
3.6491 1.8489 -2.0066 0.9819
3.2624 2.4677 -2.0065 0.9819
2.4921 3.2427 -2.0061 0.9819
1.5441 3.7853 -2.0053 0.9820
1.2001 3.9074 -2.0050 0.9820
0.1228 4.0834 -2.0039 0.9820
-0.9620 3.9677 -2.0026 0.9820
-1.3118 3.8652 -2.0022 0.9820
-1.6510 3.7319 -2.0017 0.9820
-1.9768 3.5690 -2.0013 0.9820
-3.0973 2.6500 -1.9995 0.9820
-3.3206 2.3627 -1.9991 0.9820
-3.5175 2.0567 -1.9987 0.9820
-3.9344 1.0515 -1.9977 0.9820
-4.0575 0.3356 -1.9971 0.9820
-4.0518 -0.3906 -1.9967 0.9820
-4.0005 -0.7504 -1.9966 0.9820
-3.9174 -1.1041 -1.9965 0.9820
-3.8032 -1.4491 -1.9964 0.9820
-3.6587 -1.7825 -1.9964 0.9820
-3.4852 -2.1018 -1.9964 0.9820
-3.2839 -2.4043 -1.9964 0.9820
-3.0565 -2.6878 -1.9965 0.9820
-1.5969 -3.7462 -1.9976 0.9820
-0.1861 -4.0709 -1.9990 0.9820
0.1778 -4.0721 -1.9994 0.9820
0.5404 -4.0409 -1.9998 0.9820
1.2504 -3.8823 -2.0007 0.9820
1.9211 -3.6000 -2.0016 0.9820
2.8076 -2.9649 -2.0030 0.9820
3.4945 -2.1172 -2.0042 0.9820
3.6701 -1.7974 -2.0046 0.9820
3.8165 -1.4631 -2.0049 0.9820
3.9324 -1.1171 -2.0053 0.9820
4.0768 0.3288 -2.0062 0.9819
4.0315 0.6911 -2.0064 0.9819
3.9540 1.0480 -2.0065 0.9819
2.8644 2.9198 -2.0063 0.9819
2.5923 3.1634 -2.0062 0.9819
1.9885 3.5728 -2.0057 0.9819
1.3217 3.8682 -2.0051 0.9820
0.9712 3.9700 -2.0048 0.9820
0.6132 4.0401 -2.0044 0.9820
0.2503 4.0779 -2.0041 0.9820
-0.1144 4.0831 -2.0037 0.9820
-1.5337 3.7820 -2.0019 0.9820
-1.8645 3.6293 -2.0014 0.9820
-2.1803 3.4477 -2.0010 0.9820
-2.4785 3.2388 -2.0005 0.9820
-3.2454 2.4654 -1.9992 0.9820
-3.4517 2.1657 -1.9988 0.9820
-3.8998 1.1740 -1.9978 0.9820
-3.9884 0.8213 -1.9975 0.9820
-4.0452 0.4622 -1.9972 0.9820
-3.9501 -0.9812 -1.9965 0.9820
-3.5491 -1.9919 -1.9964 0.9820
-3.3574 -2.3005 -1.9964 0.9820
-2.6290 -3.1079 -1.9968 0.9820
-2.3416 -3.3303 -1.9970 0.9820
-1.0297 -3.9411 -1.9981 0.9820
-0.6742 -4.0180 -1.9985 0.9820
1.1284 -3.9192 -2.0005 0.9820
1.4738 -3.8038 -2.0010 0.9820
2.1271 -3.4830 -2.0019 0.9820
2.4299 -3.2801 -2.0024 0.9820
2.9753 -2.7974 -2.0032 0.9820
3.4264 -2.2252 -2.0041 0.9820
3.6119 -1.9110 -2.0044 0.9820
3.9910 -0.8870 -2.0055 0.9819
4.0862 -0.1639 -2.0060 0.9819
4.0849 0.2013 -2.0062 0.9819
3.7574 1.6174 -2.0066 0.9819
3.4102 2.2592 -2.0066 0.9819
3.1950 2.5544 -2.0065 0.9819
2.9542 2.8290 -2.0064 0.9819
1.0948 3.9380 -2.0049 0.9820
0.7391 4.0192 -2.0046 0.9820
0.0132 4.0850 -2.0038 0.9820
-0.3511 4.0690 -2.0034 0.9820
-0.7125 4.0207 -2.0029 0.9820
-1.7503 3.6860 -2.0016 0.9820
-2.6620 3.0890 -2.0002 0.9820
-2.9262 2.8387 -1.9998 0.9820
-3.1671 2.5658 -1.9994 0.9820
-3.5712 1.9615 -1.9986 0.9820
-3.7312 1.6348 -1.9982 0.9820
-3.8615 1.2953 -1.9979 0.9820
-3.9610 0.9456 -1.9976 0.9820
-4.0649 0.2267 -1.9970 0.9820
-4.0685 -0.1368 -1.9968 0.9820
-3.8864 -1.2088 -1.9964 0.9820
-3.4276 -2.1945 -1.9964 0.9820
-3.2183 -2.4916 -1.9965 0.9820
-2.9834 -2.7689 -1.9966 0.9820
-2.7247 -3.0241 -1.9967 0.9820
-1.8275 -3.6388 -1.9974 0.9820
-1.1522 -3.9068 -1.9980 0.9820
-0.4399 -4.0508 -1.9987 0.9820
0.2870 -4.0662 -1.9995 0.9820
0.6487 -4.0252 -1.9999 0.9820
1.0053 -3.9522 -2.0004 0.9820
2.0171 -3.5474 -2.0017 0.9820
2.8863 -2.8888 -2.0031 0.9820
3.7172 -1.6984 -2.0047 0.9820
4.0361 -0.6540 -2.0056 0.9819
4.0666 0.4380 -2.0063 0.9819
3.9245 1.1538 -2.0065 0.9819
3.6572 1.8328 -2.0066 0.9819
3.4791 2.1517 -2.0066 0.9819
3.0412 2.7354 -2.0064 0.9819
2.7849 2.9955 -2.0063 0.9819
2.5064 3.2317 -2.0061 0.9819
2.2080 3.4420 -2.0059 0.9819
1.5608 3.7785 -2.0054 0.9820
0.8644 3.9944 -2.0047 0.9820
0.5045 4.0548 -2.0043 0.9820
-1.6345 3.7392 -2.0018 0.9820
-1.9610 3.5777 -2.0013 0.9820
-2.2718 3.3878 -2.0008 0.9820
-2.5644 3.1709 -2.0004 0.9820
-2.8363 2.9289 -1.9999 0.9820
-3.0856 2.6637 -1.9995 0.9820
-3.3102 2.3773 -1.9991 0.9820
-3.5084 2.0722 -1.9987 0.9820
-3.6785 1.7507 -1.9983 0.9820
-3.8194 1.4154 -1.9980 0.9820
-3.9297 1.0689 -1.9977 0.9820
-4.0089 0.7140 -1.9974 0.9820
1.9257 3.3521 -2.0055 0.9827
0.9692 3.7407 -2.0047 0.9827
0.6315 3.8116 -2.0043 0.9827
-0.3999 3.8406 -2.0032 0.9828
-1.4015 3.5954 -2.0019 0.9828
-1.7162 3.4554 -2.0015 0.9828
-2.0172 3.2878 -2.0011 0.9828
-3.0370 2.3728 -1.9994 0.9828
-3.6725 1.1601 -1.9980 0.9828
-3.7608 0.8278 -1.9977 0.9828
-3.8191 0.4890 -1.9975 0.9828
-3.8471 0.1464 -1.9972 0.9828
-3.8445 -0.1973 -1.9971 0.9828
-3.8112 -0.5394 -1.9969 0.9828
-3.7477 -0.8771 -1.9968 0.9828
-3.6544 -1.2078 -1.9967 0.9828
-3.5320 -1.5290 -1.9966 0.9828
-3.3816 -1.8379 -1.9966 0.9828
-3.0013 -2.4096 -1.9967 0.9828
-1.6671 -3.4711 -1.9976 0.9828
-1.0242 -3.7131 -1.9982 0.9828
-0.0046 -3.8538 -1.9993 0.9828
0.6805 -3.7949 -2.0001 0.9828
1.0165 -3.7198 -2.0005 0.9828
1.3445 -3.6151 -2.0009 0.9828
1.6619 -3.4815 -2.0014 0.9828
1.9663 -3.3201 -2.0018 0.9828
2.2551 -3.1322 -2.0022 0.9828
2.5260 -2.9192 -2.0027 0.9828
2.7769 -2.6828 -2.0031 0.9828
3.0057 -2.4249 -2.0035 0.9827
3.2106 -2.1476 -2.0039 0.9827
3.5424 -1.5435 -2.0046 0.9827
3.7614 -0.8898 -2.0052 0.9827
3.8263 -0.5508 -2.0055 0.9827
3.8606 -0.2074 -2.0057 0.9827
3.8641 0.1378 -2.0059 0.9827
3.8367 0.4820 -2.0061 0.9827
3.5727 1.4807 -2.0063 0.9827
3.2527 2.0919 -2.0063 0.9827
3.0531 2.3737 -2.0062 0.9827
2.8290 2.6364 -2.0061 0.9827
2.3152 3.0966 -2.0058 0.9827
1.4123 3.5978 -2.0051 0.9827
1.0856 3.7088 -2.0048 0.9827
0.7504 3.7902 -2.0045 0.9827
0.4092 3.8414 -2.0041 0.9827
0.0649 3.8619 -2.0037 0.9827
-0.2797 3.8515 -2.0033 0.9827
-1.2886 3.6377 -2.0021 0.9828
-1.6076 3.5075 -2.0017 0.9828
-2.4772 2.9549 -2.0004 0.9828
-3.7333 0.9450 -1.9978 0.9828
-3.8408 0.2665 -1.9973 0.9828
-3.8263 -0.4201 -1.9969 0.9828
-3.7734 -0.7596 -1.9968 0.9828
-3.4373 -1.7314 -1.9966 0.9828
-3.2692 -2.0311 -1.9967 0.9828
-3.0751 -2.3146 -1.9967 0.9828
-2.0721 -3.2449 -1.9973 0.9828
-1.7747 -3.4171 -1.9976 0.9828
-1.1396 -3.6791 -1.9981 0.9828
-0.8070 -3.7667 -1.9984 0.9828
0.8997 -3.7495 -2.0004 0.9828
1.2308 -3.6551 -2.0008 0.9828
1.5523 -3.5315 -2.0012 0.9828
1.8615 -3.3797 -2.0017 0.9828
2.1560 -3.2009 -2.0021 0.9828
2.6915 -2.7680 -2.0029 0.9828
3.3303 -1.9578 -2.0041 0.9827
3.6264 -1.3354 -2.0048 0.9827
3.7316 -1.0068 -2.0051 0.9827
3.8070 -0.6700 -2.0054 0.9827
3.8521 -0.3279 -2.0056 0.9827
3.8664 0.0170 -2.0058 0.9827
3.8498 0.3619 -2.0060 0.9827
3.8024 0.7039 -2.0061 0.9827
3.7247 1.0403 -2.0062 0.9827
3.4808 1.6856 -2.0063 0.9827
3.3165 1.9893 -2.0063 0.9827
3.1258 2.2772 -2.0063 0.9827
2.9101 2.5468 -2.0062 0.9827
1.2010 3.6733 -2.0049 0.9827
0.8684 3.7652 -2.0046 0.9827
0.1856 3.8582 -2.0039 0.9827
-0.1593 3.8586 -2.0035 0.9827
-0.8420 3.7674 -2.0027 0.9828
-1.1744 3.6765 -2.0022 0.9828
-2.1045 3.2323 -2.0009 0.9828
-2.8833 2.5582 -1.9997 0.9828
-3.2907 2.0044 -1.9989 0.9828
-3.8495 0.0432 -1.9972 0.9828
-3.8377 -0.3003 -1.9970 0.9828
-3.7953 -0.6414 -1.9969 0.9828
-3.1459 -2.2174 -1.9967 0.9828
-2.9357 -2.4893 -1.9968 0.9828
-2.7021 -2.7414 -1.9969 0.9828
-2.4470 -2.9717 -1.9971 0.9828
-2.1724 -3.1784 -1.9972 0.9828
-1.5735 -3.5147 -1.9977 0.9828
-0.9242 -3.7395 -1.9983 0.9828
-0.5871 -3.8076 -1.9987 0.9828
-0.2452 -3.8455 -1.9990 0.9828
0.0988 -3.8528 -1.9994 0.9828
0.4421 -3.8294 -1.9998 0.9828
0.7821 -3.7755 -2.0002 0.9828
1.4411 -3.5780 -2.0011 0.9828
1.7549 -3.4359 -2.0015 0.9828
2.0548 -3.2664 -2.0019 0.9828
2.6035 -2.8506 -2.0028 0.9828
2.8480 -2.6075 -2.0032 0.9828
3.0698 -2.3435 -2.0036 0.9827
3.2673 -2.0608 -2.0040 0.9827
3.4387 -1.7615 -2.0043 0.9827
3.5827 -1.4480 -2.0047 0.9827
3.6981 -1.1228 -2.0050 0.9827
3.8225 0.5847 -2.0061 0.9827
3.7553 0.9234 -2.0062 0.9827
3.1954 2.1784 -2.0063 0.9827
2.9883 2.4547 -2.0062 0.9827
2.7573 2.7112 -2.0061 0.9827
2.2313 3.1575 -2.0058 0.9827
-0.7240 3.7921 -2.0028 0.9828
-1.0591 3.7117 -2.0024 0.9828
-1.7010 3.4629 -2.0015 0.9828
-3.2267 2.1064 -1.9990 0.9828
-3.4011 1.8098 -1.9987 0.9828
-3.7571 0.8444 -1.9977 0.9828
-3.8464 0.1634 -1.9973 0.9828
-3.6597 -1.1917 -1.9967 0.9828
-3.5387 -1.5133 -1.9967 0.9828
-3.3896 -1.8229 -1.9966 0.9828
-3.2136 -2.1180 -1.9967 0.9828
-3.0120 -2.3963 -1.9967 0.9828
-2.7864 -2.6556 -1.9969 0.9828
-2.5386 -2.8937 -1.9970 0.9828
-1.6824 -3.4637 -1.9976 0.9828
-1.0406 -3.7085 -1.9982 0.9828
-0.7057 -3.7872 -1.9985 0.9828
-0.0216 -3.8537 -1.9993 0.9828
0.6637 -3.7978 -2.0001 0.9828
1.0000 -3.7242 -2.0005 0.9828
2.2412 -3.1421 -2.0022 0.9828
2.5130 -2.9303 -2.0026 0.9828
3.7574 -0.9064 -2.0052 0.9827
3.8238 -0.5677 -2.0054 0.9827
3.8596 -0.2244 -2.0057 0.9827
3.7823 0.8056 -2.0062 0.9827
3.6955 1.1398 -2.0063 0.9827
2.8407 2.6239 -2.0061 0.9827
1.7431 3.4503 -2.0054 0.9827
1.4282 3.5915 -2.0051 0.9827
0.7671 3.7869 -2.0045 0.9827
0.0820 3.8616 -2.0037 0.9827
-0.2627 3.8527 -2.0034 0.9827
-0.9427 3.7432 -2.0025 0.9828
-1.2725 3.6434 -2.0021 0.9828
-1.5921 3.5146 -2.0017 0.9828
-1.8988 3.3579 -2.0012 0.9828
-2.1903 3.1745 -2.0008 0.9828
-2.4642 2.9658 -2.0004 0.9828
-2.9507 2.4798 -1.9996 0.9828
-3.1595 2.2063 -1.9992 0.9828
-3.3431 1.9153 -1.9988 0.9828
-3.7995 0.6249 -1.9976 0.9828
-3.8396 0.2835 -1.9973 0.9828
-3.8492 -0.0601 -1.9971 0.9828
-3.6952 -1.0768 -1.9967 0.9828
-3.5843 -1.4021 -1.9967 0.9828
-3.2781 -2.0166 -1.9967 0.9828
-3.0853 -2.3010 -1.9967 0.9828
-2.8679 -2.5672 -1.9968 0.9828
-2.6277 -2.8129 -1.9969 0.9828
-2.3665 -3.0363 -1.9971 0.9828
-1.7897 -3.4092 -1.9975 0.9828
-0.8237 -3.7631 -1.9984 0.9828
1.5366 -3.5383 -2.0012 0.9828
1.8465 -3.3878 -2.0016 0.9828
2.6792 -2.7798 -2.0029 0.9828
3.3215 -1.9725 -2.0041 0.9827
3.7271 -1.0233 -2.0051 0.9827
3.8664 -0.0000 -2.0058 0.9827
3.8513 0.3449 -2.0060 0.9827
3.7292 1.0238 -2.0062 0.9827
3.6232 1.3524 -2.0063 0.9827
2.6835 2.7842 -2.0061 0.9827
2.4243 3.0122 -2.0059 0.9827
2.1457 3.2161 -2.0057 0.9827
1.8501 3.3943 -2.0055 0.9827
0.5460 3.8246 -2.0042 0.9827
-0.4858 3.8305 -2.0031 0.9828
-1.1582 3.6817 -2.0023 0.9828
-1.4816 3.5629 -2.0018 0.9828
-1.7931 3.4158 -2.0014 0.9828
-2.0902 3.2416 -2.0010 0.9828
-2.3705 3.0416 -2.0005 0.9828
-3.0893 2.3041 -1.9993 0.9828
-3.4482 1.7179 -1.9986 0.9828
-3.6974 1.0775 -1.9979 0.9828
-3.8290 0.4033 -1.9974 0.9828
-3.7271 -0.9609 -1.9968 0.9828
-3.6264 -1.2894 -1.9967 0.9828
-3.3395 -1.9132 -1.9966 0.9828
-2.9466 -2.4763 -1.9968 0.9828
-2.1864 -3.1688 -1.9972 0.9828
-1.8953 -3.3515 -1.9975 0.9828
-1.2700 -3.6359 -1.9980 0.9828
-0.9408 -3.7353 -1.9983 0.9828
-0.6039 -3.8050 -1.9987 0.9828
0.4252 -3.8313 -1.9998 0.9828
1.0996 -3.6963 -2.0006 0.9828
1.4252 -3.5842 -2.0011 0.9828
1.7396 -3.4436 -2.0015 0.9828
2.3248 -3.0810 -2.0023 0.9828
2.5909 -2.8620 -2.0028 0.9828
2.8364 -2.6200 -2.0032 0.9828
3.0594 -2.3571 -2.0036 0.9827
3.2581 -2.0752 -2.0040 0.9827
3.4308 -1.7766 -2.0043 0.9827
3.8601 0.2244 -2.0059 0.9827
3.6636 1.2385 -2.0063 0.9827
3.5386 1.5604 -2.0063 0.9827
3.3853 1.8698 -2.0063 0.9827
2.9991 2.4415 -2.0062 0.9827
2.5172 2.9351 -2.0060 0.9827
2.2452 3.1476 -2.0058 0.9827
1.3313 3.6284 -2.0050 0.9827
-0.3659 3.8441 -2.0032 0.9827
-0.7072 3.7953 -2.0028 0.9828
-1.0427 3.7163 -2.0024 0.9828
-1.6857 3.4704 -2.0015 0.9828
-2.7905 2.6596 -1.9998 0.9828
-3.2174 2.1206 -1.9991 0.9828
-3.5417 1.5147 -1.9984 0.9828
-3.6621 1.1925 -1.9980 0.9828
-3.8457 0.1804 -1.9973 0.9828
-3.8159 -0.5057 -1.9969 0.9828
-3.6649 -1.1755 -1.9967 0.9828
-3.5454 -1.4977 -1.9967 0.9828
-3.0225 -2.3830 -1.9967 0.9828
-2.7981 -2.6432 -1.9968 0.9828
-2.2842 -3.0988 -1.9972 0.9828
-1.9990 -3.2905 -1.9974 0.9828
-1.6977 -3.4562 -1.9976 0.9828
-1.3828 -3.5943 -1.9979 0.9828
-1.0569 -3.7039 -1.9982 0.9828
-0.0386 -3.8536 -1.9993 0.9828
0.6469 -3.8007 -2.0001 0.9828
1.6311 -3.4960 -2.0013 0.9828
1.9368 -3.3373 -2.0018 0.9828
2.7530 -2.7072 -2.0030 0.9828
2.9841 -2.4513 -2.0034 0.9827
3.5286 -1.5747 -2.0045 0.9827
3.7534 -0.9229 -2.0052 0.9827
3.8212 -0.5846 -2.0054 0.9827
3.8651 0.1037 -2.0059 0.9827
3.7858 0.7889 -2.0062 0.9827
3.4421 1.7632 -2.0063 0.9827
3.0739 2.3466 -2.0062 0.9827
2.6078 2.8551 -2.0060 0.9827
2.0586 3.2724 -2.0056 0.9827
1.7583 3.4426 -2.0054 0.9827
1.1183 3.6991 -2.0048 0.9827
0.7838 3.7835 -2.0045 0.9827
-0.2457 3.8539 -2.0034 0.9827
-0.5883 3.8158 -2.0030 0.9828
-0.9262 3.7474 -2.0026 0.9828
-1.2564 3.6490 -2.0021 0.9828
-2.1763 3.1841 -2.0008 0.9828
-2.7063 2.7456 -2.0000 0.9828
-3.1498 2.2202 -1.9992 0.9828
-3.6233 1.3064 -1.9981 0.9828
-3.7248 0.9779 -1.9978 0.9828
-3.8494 -0.0431 -1.9971 0.9828
-3.8299 -0.3862 -1.9970 0.9828
-3.7799 -0.7263 -1.9968 0.9828
-3.6999 -1.0605 -1.9967 0.9828
-3.5905 -1.3862 -1.9967 0.9828
-3.4525 -1.7009 -1.9966 0.9828
-3.2870 -2.0021 -1.9967 0.9828
-2.8792 -2.5545 -1.9968 0.9828
-2.6400 -2.8013 -1.9969 0.9828
-2.3798 -3.0259 -1.9971 0.9828
-2.1007 -3.2264 -1.9973 0.9828
-1.8048 -3.4013 -1.9975 0.9828
-1.1720 -3.6689 -1.9981 0.9828
-0.8402 -3.7594 -1.9984 0.9828
-0.5017 -3.8200 -1.9988 0.9828
-0.1590 -3.8502 -1.9991 0.9828
1.1985 -3.6657 -2.0008 0.9828
2.1276 -3.2197 -2.0020 0.9828
2.4068 -3.0177 -2.0025 0.9828
2.6669 -2.7916 -2.0029 0.9828
2.9059 -2.5431 -2.0033 0.9827
3.3128 -1.9871 -2.0041 0.9827
3.4774 -1.6840 -2.0044 0.9827
3.7225 -1.0397 -2.0051 0.9827
3.8009 -0.7036 -2.0053 0.9827
3.8490 -0.3619 -2.0056 0.9827
3.8664 -0.0171 -2.0058 0.9827
3.8528 0.3279 -2.0060 0.9827
3.7337 1.0073 -2.0062 0.9827
3.6291 1.3364 -2.0063 0.9827
3.4955 1.6548 -2.0063 0.9827
3.1458 2.2495 -2.0063 0.9827
2.9325 2.5210 -2.0062 0.9827
2.6958 2.7723 -2.0061 0.9827
2.4375 3.0015 -2.0059 0.9827
2.1599 3.2066 -2.0057 0.9827
1.8651 3.3861 -2.0055 0.9827
1.5554 3.5385 -2.0052 0.9827
1.2334 3.6626 -2.0049 0.9827
0.9017 3.7574 -2.0046 0.9827
-0.4689 3.8326 -2.0031 0.9828
-0.8087 3.7747 -2.0027 0.9828
-1.1419 3.6868 -2.0023 0.9828
-1.7781 3.4238 -2.0014 0.9828
-2.3571 3.0520 -2.0006 0.9828
-2.8607 2.5836 -1.9997 0.9828
-3.0791 2.3177 -1.9993 0.9828
-3.7750 0.7600 -1.9977 0.9828
-3.8272 0.4202 -1.9974 0.9828
-3.8402 -0.2664 -1.9970 0.9828
-3.8009 -0.6079 -1.9969 0.9828
-3.7313 -0.9444 -1.9968 0.9828
-3.6320 -1.2734 -1.9967 0.9828
-3.3479 -1.8984 -1.9966 0.9828
-3.1653 -2.1895 -1.9967 0.9828
-1.9100 -3.3431 -1.9974 0.9828
-1.6045 -3.5006 -1.9977 0.9828
-0.9572 -3.7311 -1.9983 0.9828
-0.6207 -3.8022 -1.9986 0.9828
0.0648 -3.8534 -1.9994 0.9828
0.4083 -3.8331 -1.9998 0.9828
0.7487 -3.7822 -2.0002 0.9828
1.0833 -3.7011 -2.0006 0.9828
1.7244 -3.4512 -2.0015 0.9828
2.0258 -3.2843 -2.0019 0.9828
2.5782 -2.8734 -2.0027 0.9828
3.2489 -2.0895 -2.0039 0.9827
3.4229 -1.7917 -2.0043 0.9827
3.5697 -1.4795 -2.0046 0.9827
3.6880 -1.1554 -2.0050 0.9827
3.8357 -0.4819 -2.0055 0.9827
3.8638 -0.1379 -2.0057 0.9827
3.6691 1.2224 -2.0063 0.9827
3.5455 1.5448 -2.0063 0.9827
3.2145 2.1501 -2.0063 0.9827
3.0098 2.4282 -2.0062 0.9827
2.5302 2.9240 -2.0060 0.9827
1.9700 3.3263 -2.0056 0.9827
0.6820 3.8030 -2.0044 0.9827
-0.0046 3.8622 -2.0037 0.9827
-0.6904 3.7985 -2.0028 0.9828
-1.0263 3.7209 -2.0024 0.9828
-1.3538 3.6138 -2.0020 0.9828
-1.6704 3.4779 -2.0016 0.9828
-2.7788 2.6719 -1.9999 0.9828
-3.5351 1.5303 -1.9984 0.9828
-3.6569 1.2087 -1.9981 0.9828
-3.7496 0.8776 -1.9978 0.9828
-3.8124 0.5396 -1.9975 0.9828
-3.8449 0.1974 -1.9973 0.9828
-3.8468 -0.1463 -1.9971 0.9828
-3.8181 -0.4888 -1.9969 0.9828
-3.2322 -2.0896 -1.9967 0.9828
-2.8097 -2.6308 -1.9968 0.9828
-2.5640 -2.8712 -1.9970 0.9828
-2.2979 -3.0887 -1.9972 0.9828
-2.0135 -3.2817 -1.9974 0.9828
-1.7129 -3.4486 -1.9976 0.9828
-1.3987 -3.5881 -1.9979 0.9828
0.6302 -3.8034 -2.0000 0.9828
