ply
format ascii 1.0
element vertex 1597
property float32 x
property float32 y
property float32 z
property float32 I
end_header
-3.4057 3.9542 -1.9999 0.9779
-3.7437 3.6337 -1.9993 0.9779
-4.0518 3.2844 -1.9988 0.9779
-4.3275 2.9091 -1.9983 0.9779
-4.5686 2.5109 -1.9978 0.9779
-4.7732 2.0929 -1.9973 0.9779
-4.9398 1.6585 -1.9969 0.9779
-5.0670 1.2110 -1.9965 0.9779
-5.1540 0.7541 -1.9961 0.9779
-5.1676 -0.6370 -1.9953 0.9779
-5.0898 -1.0953 -1.9951 0.9779
-4.9715 -1.5448 -1.9950 0.9779
-4.1174 -3.1859 -1.9951 0.9779
-3.8171 -3.5407 -1.9952 0.9779
-3.1279 -4.1634 -1.9956 0.9779
-2.7445 -4.4265 -1.9959 0.9779
-2.3391 -4.6544 -1.9962 0.9779
-1.4755 -4.9979 -1.9970 0.9779
-0.5643 -5.1829 -1.9979 0.9779
0.3658 -5.2034 -1.9989 0.9779
0.8287 -5.1514 -1.9995 0.9779
1.2852 -5.0584 -2.0001 0.9779
1.7318 -4.9250 -2.0006 0.9779
2.1648 -4.7523 -2.0012 0.9779
2.9765 -4.2946 -2.0024 0.9779
3.3486 -4.0131 -2.0030 0.9779
4.5454 -2.5915 -2.0051 0.9778
4.9358 -1.7434 -2.0060 0.9778
5.2375 0.0928 -2.0074 0.9778
5.0274 1.4765 -2.0080 0.9778
4.6853 2.3463 -2.0081 0.9778
4.4573 2.7549 -2.0080 0.9778
3.8965 3.5026 -2.0078 0.9778
3.5682 3.8359 -2.0076 0.9778
2.4244 4.6418 -2.0068 0.9778
1.1083 5.1149 -2.0056 0.9778
0.6475 5.1921 -2.0051 0.9778
0.1818 5.2279 -2.0046 0.9778
-0.2852 5.2219 -2.0041 0.9778
-0.7496 5.1742 -2.0036 0.9779
-1.2078 5.0853 -2.0030 0.9779
-2.0909 4.7870 -2.0018 0.9779
-2.5088 4.5801 -2.0012 0.9779
-3.2808 4.0591 -2.0001 0.9779
-4.2349 3.0432 -1.9984 0.9779
-4.7059 2.2412 -1.9975 0.9779
-5.0271 1.3689 -1.9966 0.9779
-5.1885 0.4537 -1.9959 0.9779
-5.0174 -1.3888 -1.9951 0.9779
-4.8733 -1.8307 -1.9950 0.9779
-4.6905 -2.2580 -1.9949 0.9779
-4.2149 -3.0556 -1.9950 0.9779
-3.6054 -3.7564 -1.9953 0.9779
-3.2563 -4.0635 -1.9955 0.9779
-2.8813 -4.3383 -1.9958 0.9779
-2.4833 -4.5787 -1.9961 0.9779
-1.1831 -5.0758 -1.9973 0.9779
-0.2626 -5.2077 -1.9982 0.9779
1.5769 -4.9762 -2.0004 0.9779
2.0150 -4.8171 -2.0010 0.9779
3.2213 -4.1154 -2.0028 0.9779
3.5765 -3.8127 -2.0033 0.9779
3.9034 -3.4795 -2.0039 0.9778
4.1993 -3.1183 -2.0044 0.9778
4.6889 -2.3237 -2.0054 0.9778
4.8786 -1.8967 -2.0059 0.9778
5.1680 0.8610 -2.0078 0.9778
5.0710 1.3186 -2.0079 0.9778
4.5412 2.6143 -2.0080 0.9778
4.2898 3.0088 -2.0080 0.9778
4.0041 3.3793 -2.0079 0.9778
3.3394 4.0362 -2.0075 0.9778
2.9657 4.3174 -2.0072 0.9778
2.5684 4.5640 -2.0069 0.9778
2.1507 4.7741 -2.0066 0.9778
-0.1219 5.2287 -2.0043 0.9778
-2.7698 4.4260 -2.0009 0.9779
-3.8395 3.5317 -1.9992 0.9779
-4.1381 3.1743 -1.9986 0.9779
-4.8273 1.9641 -1.9972 0.9779
-4.9822 1.5254 -1.9967 0.9779
-5.0974 1.0747 -1.9964 0.9779
-5.1721 0.6156 -1.9960 0.9779
-5.2056 0.1519 -1.9957 0.9779
-5.1485 -0.7753 -1.9953 0.9779
-5.0585 -1.2313 -1.9951 0.9779
-4.5516 -2.5264 -1.9949 0.9779
-4.3082 -2.9224 -1.9950 0.9779
-4.0306 -3.2952 -1.9951 0.9779
-3.7209 -3.6418 -1.9952 0.9779
-3.3816 -3.9596 -1.9954 0.9779
-3.0153 -4.2460 -1.9957 0.9779
-2.2136 -4.7157 -1.9963 0.9779
-1.7845 -4.8952 -1.9967 0.9779
0.0401 -5.2151 -1.9986 0.9779
0.9666 -5.1278 -1.9997 0.9779
1.8633 -4.8773 -2.0008 0.9779
2.7019 -4.4712 -2.0020 0.9779
4.6136 -2.4689 -2.0053 0.9778
4.8166 -2.0480 -2.0057 0.9778
4.9811 -1.6106 -2.0062 0.9778
5.2325 -0.2345 -2.0072 0.9778
5.2333 0.2332 -2.0075 0.9778
5.1922 0.6991 -2.0077 0.9778
5.1096 1.1595 -2.0079 0.9778
4.9861 1.6107 -2.0080 0.9778
4.3818 2.8733 -2.0080 0.9778
4.1079 3.2526 -2.0079 0.9778
3.4640 3.9300 -2.0076 0.9778
2.2989 4.7048 -2.0067 0.9778
1.4258 5.0365 -2.0059 0.9778
0.9707 5.1424 -2.0055 0.9778
-0.4250 5.2120 -2.0039 0.9778
-0.8879 5.1518 -2.0034 0.9779
-1.3436 5.0507 -2.0028 0.9779
-1.7882 4.9093 -2.0022 0.9779
-2.6305 4.5108 -2.0011 0.9779
-3.0214 4.2570 -2.0005 0.9779
-3.3881 3.9694 -1.9999 0.9779
-3.7276 3.6503 -1.9994 0.9779
-4.0373 3.3024 -1.9988 0.9779
-4.5575 2.5312 -1.9978 0.9779
-4.7639 2.1141 -1.9973 0.9779
-4.9325 1.6804 -1.9969 0.9779
-5.0617 1.2335 -1.9965 0.9779
-5.1985 0.3144 -1.9958 0.9779
-5.0946 -1.0727 -1.9952 0.9779
-4.9783 -1.5228 -1.9950 0.9779
-4.6283 -2.3829 -1.9949 0.9779
-4.1315 -3.1676 -1.9951 0.9779
-3.1464 -4.1495 -1.9956 0.9779
-1.9365 -4.8368 -1.9966 0.9779
-1.4976 -4.9912 -1.9970 0.9779
-0.1229 -5.2133 -1.9984 0.9779
0.3427 -5.2049 -1.9989 0.9779
0.8058 -5.1550 -1.9995 0.9779
1.7099 -4.9326 -2.0006 0.9779
2.1437 -4.7618 -2.0012 0.9779
2.9573 -4.3077 -2.0024 0.9779
3.3307 -4.0279 -2.0029 0.9779
4.2818 -3.0048 -2.0046 0.9778
5.0668 -1.3190 -2.0064 0.9778
5.1652 -0.8619 -2.0068 0.9778
5.2224 -0.3979 -2.0071 0.9778
5.2378 0.0695 -2.0074 0.9778
5.1432 0.9993 -2.0078 0.9778
5.0339 1.4541 -2.0079 0.9778
4.6957 2.3255 -2.0081 0.9778
4.4695 2.7351 -2.0080 0.9778
4.2076 3.1227 -2.0080 0.9778
3.9120 3.4853 -2.0078 0.9778
2.4450 4.6310 -2.0068 0.9778
2.0218 4.8297 -2.0065 0.9778
1.5826 4.9898 -2.0061 0.9778
1.1310 5.1100 -2.0056 0.9778
0.6706 5.1893 -2.0052 0.9778
0.2050 5.2271 -2.0047 0.9778
-0.2620 5.2232 -2.0041 0.9778
-0.7266 5.1776 -2.0036 0.9779
-1.1852 5.0907 -2.0030 0.9779
-2.8873 4.3497 -2.0007 0.9779
-3.2628 4.0737 -2.0001 0.9779
-3.6121 3.7654 -1.9995 0.9779
-4.6959 2.2621 -1.9975 0.9779
-5.0210 1.3912 -1.9966 0.9779
-5.1241 0.9376 -1.9963 0.9779
-5.1865 0.4767 -1.9959 0.9779
-5.1258 -0.9130 -1.9952 0.9779
-4.8814 -1.8090 -1.9950 0.9779
-4.4823 -2.6476 -1.9950 0.9779
-3.9409 -3.4021 -1.9951 0.9779
-2.5035 -4.5676 -1.9961 0.9779
-2.0865 -4.7736 -1.9964 0.9779
-0.2857 -5.2065 -1.9982 0.9779
0.1799 -5.2125 -1.9987 0.9779
1.5548 -4.9831 -2.0004 0.9779
2.8210 -4.3975 -2.0022 0.9779
3.2029 -4.1296 -2.0027 0.9779
3.8879 -3.4967 -2.0039 0.9778
4.1854 -3.1369 -2.0044 0.9778
4.4496 -2.7518 -2.0049 0.9778
4.6785 -2.3445 -2.0054 0.9778
5.2071 -0.5608 -2.0070 0.9778
5.2372 -0.0942 -2.0073 0.9778
5.1717 0.8381 -2.0078 0.9778
5.0767 1.2961 -2.0079 0.9778
4.9412 1.7438 -2.0080 0.9778
3.3573 4.0213 -2.0075 0.9778
2.9848 4.3042 -2.0073 0.9778
2.5886 4.5526 -2.0070 0.9778
2.1719 4.7645 -2.0066 0.9778
1.7379 4.9383 -2.0062 0.9778
1.2902 5.0725 -2.0058 0.9778
0.8324 5.1662 -2.0053 0.9778
0.3682 5.2186 -2.0048 0.9778
-1.0257 5.1257 -2.0032 0.9779
-1.9190 4.8592 -2.0021 0.9779
-2.3441 4.6673 -2.0015 0.9779
-3.1342 4.1741 -2.0003 0.9779
-3.8238 3.5488 -1.9992 0.9779
-4.1240 3.1927 -1.9987 0.9779
-4.3912 2.8114 -1.9981 0.9779
-4.8186 1.9855 -1.9972 0.9779
-5.0926 1.0973 -1.9964 0.9779
-5.1693 0.6386 -1.9960 0.9779
-5.2049 0.1750 -1.9957 0.9779
-5.0639 -1.2089 -1.9951 0.9779
-4.9356 -1.6556 -1.9950 0.9779
-4.3212 -2.9032 -1.9950 0.9779
-4.0452 -3.2773 -1.9951 0.9779
-3.7370 -3.6253 -1.9952 0.9779
-2.2345 -4.7058 -1.9963 0.9779
-1.3634 -5.0299 -1.9971 0.9779
-0.9095 -5.1326 -1.9976 0.9779
-0.4482 -5.1946 -1.9980 0.9779
0.9438 -5.1320 -1.9996 0.9779
1.3982 -5.0288 -2.0002 0.9779
3.0720 -4.2272 -2.0025 0.9779
3.7764 -3.6162 -2.0037 0.9779
4.0850 -3.2658 -2.0042 0.9778
4.8074 -2.0693 -2.0057 0.9778
4.9739 -1.6327 -2.0061 0.9778
5.1007 -1.1828 -2.0065 0.9778
5.2314 -0.2578 -2.0072 0.9778
5.2342 0.2099 -2.0075 0.9778
5.1146 1.1368 -2.0079 0.9778
3.4814 3.9146 -2.0076 0.9778
3.1180 4.2090 -2.0074 0.9778
1.4482 5.0301 -2.0059 0.9778
0.9935 5.1381 -2.0055 0.9778
0.0648 5.2303 -2.0045 0.9778
-0.4019 5.2139 -2.0040 0.9778
-0.8651 5.1558 -2.0034 0.9779
-1.7664 4.9172 -2.0023 0.9779
-2.1973 4.7387 -2.0017 0.9779
-2.6104 4.5225 -2.0011 0.9779
-3.0025 4.2704 -2.0005 0.9779
-4.3016 2.9475 -1.9983 0.9779
-4.9250 1.7023 -1.9969 0.9779
-5.0562 1.2560 -1.9965 0.9779
-5.1971 0.3375 -1.9958 0.9779
-5.2058 -0.1274 -1.9956 0.9779
-5.0993 -1.0501 -1.9952 0.9779
-4.4097 -2.7668 -1.9950 0.9779
-3.8484 -3.5066 -1.9952 0.9779
-3.5206 -3.8363 -1.9954 0.9779
-3.1647 -4.1354 -1.9956 0.9779
-2.7837 -4.4018 -1.9959 0.9779
-1.5198 -4.9845 -1.9970 0.9779
-0.6102 -5.1776 -1.9979 0.9779
1.2402 -5.0695 -2.0000 0.9779
1.6879 -4.9401 -2.0006 0.9779
2.5403 -4.5642 -2.0017 0.9779
3.3128 -4.0426 -2.0029 0.9779
3.9805 -3.3916 -2.0040 0.9778
4.7400 -2.2184 -2.0055 0.9778
4.9201 -1.7871 -2.0060 0.9778
5.0609 -1.3415 -2.0064 0.9778
5.2205 -0.4210 -2.0071 0.9778
5.2380 0.0463 -2.0074 0.9778
5.2136 0.5134 -2.0076 0.9778
5.0403 1.4317 -2.0079 0.9778
4.8927 1.8757 -2.0080 0.9778
4.7059 2.3047 -2.0081 0.9778
4.4816 2.7152 -2.0080 0.9778
3.2481 4.1098 -2.0074 0.9778
2.8682 4.3825 -2.0072 0.9778
2.4655 4.6201 -2.0069 0.9778
1.6048 4.9828 -2.0061 0.9778
0.2282 5.2262 -2.0047 0.9778
-0.2388 5.2243 -2.0042 0.9778
-0.7036 5.1808 -2.0036 0.9779
-2.4681 4.6023 -2.0013 0.9779
-2.8679 4.3626 -2.0007 0.9779
-3.2447 4.0882 -2.0001 0.9779
-3.5954 3.7814 -1.9996 0.9779
-3.9173 3.4447 -1.9990 0.9779
-4.2078 3.0808 -1.9985 0.9779
-4.6859 2.2830 -1.9975 0.9779
-4.8698 1.8555 -1.9971 0.9779
-5.1893 -0.4292 -1.9954 0.9779
-5.1298 -0.8903 -1.9952 0.9779
-4.8894 -1.7873 -1.9950 0.9779
-4.7104 -2.2163 -1.9949 0.9779
-4.4940 -2.6276 -1.9950 0.9779
-3.9559 -3.3846 -1.9951 0.9779
-3.6386 -3.7242 -1.9953 0.9779
-3.2923 -4.0344 -1.9955 0.9779
-2.9197 -4.3125 -1.9958 0.9779
-2.5238 -4.5565 -1.9961 0.9779
0.1568 -5.2132 -1.9987 0.9779
1.5326 -4.9899 -2.0004 0.9779
1.9721 -4.8347 -2.0010 0.9779
2.8014 -4.4099 -2.0021 0.9779
3.8723 -3.5139 -2.0038 0.9778
4.1714 -3.1554 -2.0044 0.9778
4.4373 -2.7715 -2.0049 0.9778
5.0162 -1.4988 -2.0063 0.9778
5.0824 1.2735 -2.0079 0.9778
4.9488 1.7219 -2.0080 0.9778
4.7756 2.1565 -2.0081 0.9778
4.3164 2.9706 -2.0080 0.9778
4.0340 3.3436 -2.0079 0.9778
3.7194 3.6898 -2.0077 0.9778
3.3751 4.0064 -2.0075 0.9778
3.0039 4.2910 -2.0073 0.9778
2.4542 -4.2309 -2.0018 0.9791
2.8226 -3.9962 -2.0024 0.9791
3.1686 -3.7296 -2.0029 0.9791
3.4895 -3.4330 -2.0035 0.9791
3.7828 -3.1089 -2.0040 0.9791
4.0460 -2.7597 -2.0045 0.9791
4.2770 -2.3884 -2.0049 0.9790
4.7597 -1.1716 -2.0062 0.9790
4.8460 -0.7425 -2.0065 0.9790
4.8936 -0.3073 -2.0068 0.9790
4.9022 0.1304 -2.0070 0.9790
4.8019 0.9995 -2.0074 0.9790
4.3664 2.2354 -2.0076 0.9790
3.6184 3.3112 -2.0074 0.9790
2.9719 3.9007 -2.0070 0.9790
2.2309 4.3654 -2.0064 0.9790
0.5630 4.8661 -2.0049 0.9791
0.1267 4.8958 -2.0044 0.9791
-0.3104 4.8863 -2.0039 0.9791
-0.7448 4.8379 -2.0034 0.9791
-3.1056 3.7733 -2.0001 0.9791
-3.4289 3.4804 -1.9996 0.9791
-3.9907 2.8144 -1.9986 0.9791
-4.2248 2.4466 -1.9981 0.9791
-4.4252 2.0596 -1.9977 0.9791
-4.5903 1.6563 -1.9973 0.9791
-1.9091 -0.0209 -0.7814 0.9918
-4.7885 -0.9189 -1.9956 0.9791
-4.5486 -1.7549 -1.9954 0.9791
-3.9218 -2.8966 -1.9954 0.9791
-3.6480 -3.2351 -1.9956 0.9791
-1.8943 -4.4961 -1.9968 0.9791
-1.0658 -4.7630 -1.9976 0.9791
0.2334 -4.8786 -1.9990 0.9791
1.0971 -4.7620 -2.0000 0.9791
1.5179 -4.6464 -2.0006 0.9791
2.3206 -4.3051 -2.0016 0.9791
2.6960 -4.0821 -2.0022 0.9791
3.6835 -3.2252 -2.0038 0.9791
3.9575 -2.8846 -2.0043 0.9791
4.2000 -2.5207 -2.0048 0.9791
4.5830 -1.7351 -2.0056 0.9790
4.7204 -1.3196 -2.0060 0.9790
4.8202 -0.8935 -2.0064 0.9790
4.8814 -0.4601 -2.0067 0.9790
4.8307 0.8489 -2.0074 0.9790
4.7360 1.2765 -2.0075 0.9790
4.2293 2.4850 -2.0076 0.9790
3.7202 3.1966 -2.0075 0.9790
2.3664 4.2938 -2.0066 0.9790
1.5653 4.6443 -2.0059 0.9790
0.7149 4.8465 -2.0050 0.9790
0.2797 4.8898 -2.0046 0.9791
-0.1576 4.8941 -2.0041 0.9791
-1.0241 4.7858 -2.0030 0.9791
-1.4465 4.6741 -2.0025 0.9791
-1.8571 4.5252 -2.0019 0.9791
-2.6302 4.1210 -2.0009 0.9791
-3.6244 3.2750 -1.9993 0.9791
-4.1466 2.5776 -1.9983 0.9791
-4.3590 2.1970 -1.9978 0.9791
-4.5366 1.7991 -1.9974 0.9791
-4.6781 1.3870 -1.9970 0.9791
-1.9566 0.2153 -0.8056 0.9915
-1.9179 0.0389 -0.7851 0.9917
-1.9514 -0.1349 -0.8006 0.9916
-2.0348 -0.3249 -0.8433 0.9911
-4.7269 -1.1952 -1.9955 0.9791
-4.4391 -2.0159 -1.9954 0.9791
-3.7472 -3.1194 -1.9955 0.9791
-3.4543 -3.4415 -1.9957 0.9791
-2.0338 -4.4345 -1.9967 0.9791
-1.6304 -4.5990 -1.9971 0.9791
-1.2140 -4.7271 -1.9974 0.9791
0.0809 -4.8831 -1.9988 0.9791
0.9477 -4.7935 -1.9998 0.9791
1.7853 -4.5513 -2.0009 0.9791
2.9289 -3.9195 -2.0025 0.9791
3.2677 -3.6436 -2.0031 0.9791
3.8651 -3.0065 -2.0041 0.9791
4.1188 -2.6505 -2.0046 0.9791
4.6766 -1.4664 -2.0059 0.9790
4.7896 -1.0436 -2.0063 0.9790
4.8644 -0.6124 -2.0066 0.9790
4.8547 0.6976 -2.0073 0.9790
4.6541 1.5493 -2.0076 0.9790
4.4975 1.9583 -2.0076 0.9790
4.3049 2.3516 -2.0076 0.9790
3.2100 3.7077 -2.0072 0.9790
0.4323 4.8791 -2.0047 0.9791
-0.0046 4.8970 -2.0042 0.9791
-0.4412 4.8759 -2.0037 0.9791
-0.8742 4.8159 -2.0032 0.9791
-1.2999 4.7174 -2.0027 0.9791
-2.1162 4.4090 -2.0016 0.9791
-3.8077 3.0586 -1.9989 0.9791
-4.2886 2.3323 -1.9980 0.9791
-4.4785 1.9401 -1.9975 0.9791
-1.9459 0.2759 -0.8044 0.9915
-1.9419 0.1002 -0.7958 0.9916
-4.7621 -1.0469 -1.9955 0.9791
-4.3146 -2.2701 -1.9954 0.9791
-4.0950 -2.6459 -1.9954 0.9791
-3.8428 -3.0008 -1.9955 0.9791
-3.5601 -3.3318 -1.9956 0.9791
-3.2490 -3.6363 -1.9958 0.9791
-2.9120 -3.9121 -1.9960 0.9791
-2.1712 -4.3685 -1.9966 0.9791
-0.5069 -4.8558 -1.9982 0.9791
0.3642 -4.8710 -1.9991 0.9791
1.6420 -4.6044 -2.0007 0.9791
2.0467 -4.4408 -2.0013 0.9791
2.4354 -4.2417 -2.0018 0.9791
3.4742 -3.4484 -2.0034 0.9791
4.4651 -2.0177 -2.0053 0.9790
4.6282 -1.6117 -2.0058 0.9790
4.7544 -1.1927 -2.0061 0.9790
4.8426 -0.7640 -2.0065 0.9790
4.8922 -0.3291 -2.0068 0.9790
4.9027 0.1086 -2.0070 0.9790
4.8740 0.5455 -2.0073 0.9790
4.8063 0.9782 -2.0074 0.9790
4.7002 1.4031 -2.0075 0.9790
3.3244 3.6057 -2.0072 0.9790
2.6302 4.1380 -2.0068 0.9790
2.2503 4.3555 -2.0065 0.9790
1.4401 4.6843 -2.0057 0.9790
1.0163 4.7931 -2.0053 0.9790
-0.2887 4.8877 -2.0039 0.9791
-0.7233 4.8413 -2.0034 0.9791
-1.1519 4.7562 -2.0029 0.9791
-1.5712 4.6332 -2.0023 0.9791
-1.9776 4.4734 -2.0018 0.9791
-2.3681 4.2780 -2.0012 0.9791
-2.7395 4.0487 -2.0007 0.9791
-3.0888 3.7871 -2.0001 0.9791
-3.9782 2.8321 -1.9986 0.9791
-4.2139 2.4654 -1.9981 0.9791
-4.4161 2.0792 -1.9977 0.9791
-4.5830 1.6767 -1.9973 0.9791
-1.9046 -0.0124 -0.7795 0.9918
-2.1981 -0.4117 -0.9153 0.9904
-4.5564 -1.7347 -1.9954 0.9791
-4.1756 -2.5167 -1.9954 0.9791
-3.3609 -3.5329 -1.9957 0.9791
-2.3065 -4.2983 -1.9965 0.9791
-1.9143 -4.4876 -1.9968 0.9791
-1.5066 -4.6413 -1.9972 0.9791
-0.2242 -4.8778 -1.9985 0.9791
2.3014 -4.3153 -2.0016 0.9791
3.3645 -3.5549 -2.0032 0.9791
3.6691 -3.2415 -2.0038 0.9791
3.9446 -2.9021 -2.0043 0.9791
4.3995 -2.1560 -2.0052 0.9790
4.5752 -1.7554 -2.0056 0.9790
4.8793 -0.4817 -2.0067 0.9790
4.9035 -0.0446 -2.0070 0.9790
4.8885 0.3930 -2.0072 0.9790
4.0033 2.8345 -2.0076 0.9790
1.9935 4.4783 -2.0062 0.9790
1.1657 4.7594 -2.0055 0.9790
0.7364 4.8433 -2.0050 0.9790
0.3014 4.8886 -2.0046 0.9791
-0.1358 4.8948 -2.0041 0.9791
-1.0029 4.7903 -2.0031 0.9791
-1.8370 4.5334 -2.0020 0.9791
-3.3028 3.6009 -1.9998 0.9791
-3.6099 3.2911 -1.9993 0.9791
-3.8881 2.9552 -1.9988 0.9791
-4.6719 1.4078 -1.9970 0.9791
-4.7780 0.9852 -1.9967 0.9791
-1.9557 0.2240 -0.8056 0.9915
-1.9218 0.0475 -0.7868 0.9917
-1.9987 -0.3100 -0.8278 0.9913
-4.2522 -2.3850 -1.9954 0.9791
-4.0226 -2.7548 -1.9954 0.9791
-3.4696 -3.4261 -1.9956 0.9791
-3.1504 -3.7223 -1.9958 0.9791
-2.8062 -3.9889 -1.9961 0.9791
-2.0534 -4.4254 -1.9967 0.9791
-1.2349 -4.7216 -1.9974 0.9791
-0.8090 -4.8139 -1.9979 0.9791
0.0592 -4.8834 -1.9988 0.9791
1.3510 -4.6971 -2.0003 0.9791
1.7650 -4.5591 -2.0009 0.9791
2.1652 -4.3847 -2.0014 0.9791
2.9114 -3.9324 -2.0025 0.9791
3.5657 -3.3543 -2.0036 0.9791
4.1070 -2.6687 -2.0046 0.9791
4.7849 -1.0649 -2.0062 0.9790
4.8982 0.2400 -2.0071 0.9790
4.6609 1.5286 -2.0076 0.9790
4.0900 2.7080 -2.0076 0.9790
3.5433 3.3913 -2.0074 0.9790
3.2264 3.6934 -2.0072 0.9790
2.5182 4.2069 -2.0067 0.9790
1.7301 4.5858 -2.0060 0.9790
1.3139 4.7210 -2.0056 0.9790
0.4540 4.8772 -2.0047 0.9791
0.0172 4.8971 -2.0043 0.9791
-0.4196 4.8779 -2.0038 0.9791
-0.8528 4.8197 -2.0032 0.9791
-1.2789 4.7232 -2.0027 0.9791
-2.4817 4.2126 -2.0011 0.9791
-3.1890 3.7027 -2.0000 0.9791
-3.5056 3.4026 -1.9995 0.9791
-3.7942 3.0755 -1.9990 0.9791
-4.0524 2.7242 -1.9985 0.9791
-4.2782 2.3514 -1.9980 0.9791
-4.4699 1.9599 -1.9976 0.9791
-4.6260 1.5531 -1.9972 0.9791
-4.7452 1.1341 -1.9968 0.9791
-1.9446 0.1090 -0.7971 0.9916
-1.9290 -0.0643 -0.7899 0.9917
-4.7667 -1.0258 -1.9955 0.9791
-4.3246 -2.2509 -1.9954 0.9791
-4.1067 -2.6277 -1.9954 0.9791
-3.5748 -3.3159 -1.9956 0.9791
-3.2651 -3.6219 -1.9958 0.9791
-2.9293 -3.8991 -1.9960 0.9791
-2.5702 -4.1454 -1.9963 0.9791
-1.3818 -4.6803 -1.9973 0.9791
-0.9590 -4.7859 -1.9977 0.9791
-0.5284 -4.8535 -1.9981 0.9791
0.7760 -4.8238 -1.9996 0.9791
2.0270 -4.4498 -2.0012 0.9791
2.4165 -4.2524 -2.0018 0.9791
2.7869 -4.0210 -2.0023 0.9791
3.4588 -3.4637 -2.0034 0.9791
3.7550 -3.1422 -2.0039 0.9791
4.4560 -2.0374 -2.0053 0.9790
4.6209 -1.6322 -2.0057 0.9790
4.7490 -1.2138 -2.0061 0.9790
4.8391 -0.7855 -2.0065 0.9790
4.8763 0.5239 -2.0072 0.9790
4.7063 1.3822 -2.0075 0.9790
4.5645 1.7965 -2.0076 0.9790
4.1726 2.5789 -2.0076 0.9790
3.9258 2.9407 -2.0075 0.9790
3.6477 3.2790 -2.0074 0.9790
2.6486 4.1264 -2.0068 0.9790
1.4609 4.6779 -2.0058 0.9790
1.0376 4.7886 -2.0053 0.9790
0.6062 4.8610 -2.0049 0.9791
-0.7018 4.8445 -2.0034 0.9791
-1.5506 4.6402 -2.0024 0.9791
-2.3491 4.2885 -2.0013 0.9791
-2.7215 4.0608 -2.0007 0.9791
-3.3979 3.5108 -1.9996 0.9791
-4.2030 2.4841 -1.9982 0.9791
-4.4068 2.0988 -1.9977 0.9791
-4.5755 1.6970 -1.9973 0.9791
-2.1622 0.3857 -0.8989 0.9906
-1.9000 -0.0040 -0.7776 0.9918
-4.6989 -1.3006 -1.9955 0.9791
-4.5640 -1.7145 -1.9954 0.9791
-4.3928 -2.1147 -1.9954 0.9791
-4.1867 -2.4981 -1.9954 0.9791
-3.9473 -2.8617 -1.9954 0.9791
-3.3765 -3.5180 -1.9957 0.9791
-3.0496 -3.8055 -1.9959 0.9791
-2.6984 -4.0629 -1.9962 0.9791
-2.3256 -4.2880 -1.9964 0.9791
-1.5272 -4.6346 -1.9971 0.9791
-1.1080 -4.7533 -1.9975 0.9791
-0.2459 -4.8767 -1.9984 0.9791
0.1901 -4.8804 -1.9989 0.9791
0.6248 -4.8452 -1.9994 0.9791
1.4765 -4.6596 -2.0005 0.9791
1.8868 -4.5105 -2.0010 0.9791
2.2822 -4.3254 -2.0016 0.9791
2.6596 -4.1058 -2.0021 0.9791
3.0161 -3.8532 -2.0027 0.9791
3.9316 -2.9195 -2.0042 0.9791
4.1773 -2.5578 -2.0047 0.9791
4.3898 -2.1755 -2.0052 0.9790
4.5673 -1.7756 -2.0056 0.9790
4.7084 -1.3615 -2.0060 0.9790
4.8120 -0.9362 -2.0063 0.9790
4.9032 -0.0664 -2.0069 0.9790
4.8901 0.3713 -2.0072 0.9790
4.8380 0.8060 -2.0074 0.9790
4.6183 1.6530 -2.0076 0.9790
4.4526 2.0584 -2.0076 0.9790
4.2512 2.4473 -2.0076 0.9790
3.7484 3.1635 -2.0075 0.9790
3.1262 3.7785 -2.0071 0.9790
2.4044 4.2727 -2.0066 0.9790
1.6065 4.6303 -2.0059 0.9790
0.7579 4.8401 -2.0051 0.9790
0.3231 4.8873 -2.0046 0.9791
-1.4050 4.6868 -2.0025 0.9791
-2.2142 4.3603 -2.0015 0.9791
-2.9520 3.8954 -2.0004 0.9791
-3.2869 3.6156 -1.9998 0.9791
-4.1237 2.6144 -1.9983 0.9791
-4.7737 1.0064 -1.9967 0.9791
-1.9546 0.2327 -0.8056 0.9915
-1.9256 0.0562 -0.7884 0.9917
-4.7374 -1.1532 -1.9955 0.9791
-4.6154 -1.5711 -1.9954 0.9791
-4.4568 -1.9764 -1.9954 0.9791
-4.2627 -2.3661 -1.9954 0.9791
-4.0348 -2.7369 -1.9954 0.9791
-3.4847 -3.4106 -1.9956 0.9791
-2.0730 -4.4162 -1.9967 0.9791
-0.3981 -4.8662 -1.9983 0.9791
0.0375 -4.8835 -1.9988 0.9791
0.4731 -4.8619 -1.9993 0.9791
2.5298 -4.1865 -2.0020 0.9791
3.8381 -3.0407 -2.0041 0.9791
4.3194 -2.3114 -2.0050 0.9790
4.5093 -1.9173 -2.0055 0.9790
4.6633 -1.5078 -2.0059 0.9790
4.8587 -0.6555 -2.0066 0.9790
4.8607 0.6545 -2.0073 0.9790
4.5147 1.9183 -2.0076 0.9790
4.3256 2.3133 -2.0076 0.9790
4.1020 2.6899 -2.0076 0.9790
3.8455 3.0449 -2.0075 0.9790
2.9014 3.9532 -2.0070 0.9790
2.5369 4.1957 -2.0067 0.9790
2.1522 4.4046 -2.0064 0.9790
1.7505 4.5782 -2.0060 0.9790
1.3349 4.7151 -2.0056 0.9790
0.4757 4.8752 -2.0048 0.9791
-1.6743 4.5966 -2.0022 0.9791
-2.0771 4.4277 -2.0016 0.9791
-2.8292 3.9861 -2.0006 0.9791
-3.1726 3.7168 -2.0000 0.9791
-3.4905 3.4181 -1.9995 0.9791
-4.2678 2.3704 -1.9980 0.9791
-4.7402 1.1552 -1.9968 0.9791
-1.9656 0.2965 -0.8136 0.9914
-1.9471 0.1178 -0.7983 0.9916
-1.9254 -0.0557 -0.7883 0.9917
-4.7712 -1.0046 -1.9956 0.9791
-4.3346 -2.2317 -1.9954 0.9791
-4.1183 -2.6095 -1.9954 0.9791
-3.8693 -2.9665 -1.9955 0.9791
-3.5895 -3.3000 -1.9956 0.9791
-2.2099 -4.3490 -1.9965 0.9791
-1.8135 -4.5295 -1.9969 0.9791
-1.4025 -4.6741 -1.9973 0.9791
-0.5499 -4.8510 -1.9981 0.9791
-0.1151 -4.8819 -1.9986 0.9791
0.3209 -4.8739 -1.9991 0.9791
1.1824 -4.7418 -2.0001 0.9791
1.6010 -4.6187 -2.0007 0.9791
2.3975 -4.2631 -2.0018 0.9791
2.7690 -4.0333 -2.0023 0.9791
4.8356 -0.8069 -2.0064 0.9790
4.8890 -0.3725 -2.0068 0.9790
4.9034 0.0651 -2.0070 0.9790
4.8786 0.5023 -2.0072 0.9790
4.8148 0.9355 -2.0074 0.9790
4.7124 1.3613 -2.0075 0.9790
4.3958 2.1770 -2.0076 0.9790
4.1841 2.5604 -2.0076 0.9790
3.3563 3.5761 -2.0073 0.9790
2.2889 4.3354 -2.0065 0.9790
1.8928 4.5215 -2.0062 0.9790
1.0589 4.7840 -2.0054 0.9790
0.6278 4.8583 -2.0049 0.9791
-0.6803 4.8476 -2.0034 0.9791
-1.5300 4.6471 -2.0024 0.9791
-3.3823 3.5259 -1.9997 0.9791
-3.9530 2.8673 -1.9987 0.9791
-4.1920 2.5027 -1.9982 0.9791
-4.3975 2.1184 -1.9977 0.9791
-4.5680 1.7173 -1.9973 0.9791
-2.1806 0.3990 -0.9073 0.9905
-1.9579 0.1800 -0.8047 0.9915
-1.9003 0.0045 -0.7777 0.9918
-2.1611 -0.3849 -0.8984 0.9906
-4.7047 -1.2797 -1.9955 0.9791
-4.4022 -2.0952 -1.9954 0.9791
-3.3921 -3.5029 -1.9957 0.9791
-3.0665 -3.7919 -1.9959 0.9791
-2.7164 -4.0508 -1.9961 0.9791
-2.3446 -4.2776 -1.9964 0.9791
-1.1290 -4.7483 -1.9975 0.9791
-0.7012 -4.8311 -1.9980 0.9791
-0.2675 -4.8755 -1.9984 0.9791
0.1684 -4.8811 -1.9989 0.9791
0.6033 -4.8479 -1.9994 0.9791
1.8667 -4.5188 -2.0010 0.9791
2.6413 -4.1175 -2.0021 0.9791
3.3327 -3.5846 -2.0032 0.9791
3.6401 -3.2739 -2.0037 0.9791
3.9186 -2.9369 -2.0042 0.9791
4.1659 -2.5763 -2.0047 0.9791
4.8077 -0.9576 -2.0063 0.9790
4.8747 -0.5250 -2.0066 0.9790
4.8917 0.3496 -2.0072 0.9790
4.2620 2.4284 -2.0076 0.9790
4.0283 2.7988 -2.0076 0.9790
3.7625 3.1468 -2.0075 0.9790
2.7943 4.0294 -2.0069 0.9790
2.4234 4.2620 -2.0066 0.9790
2.0333 4.4605 -2.0063 0.9790
1.6270 4.6232 -2.0059 0.9790
0.7794 4.8367 -2.0051 0.9790
0.3448 4.8858 -2.0046 0.9791
-0.0924 4.8959 -2.0041 0.9791
-0.5286 4.8669 -2.0036 0.9791
-1.3842 4.6931 -2.0026 0.9791
-1.7968 4.5497 -2.0020 0.9791
-2.9348 3.9085 -2.0004 0.9791
-3.2708 3.6302 -1.9999 0.9791
-3.8618 2.9897 -1.9988 0.9791
-4.5124 1.8594 -1.9975 0.9791
-4.7692 1.0276 -1.9967 0.9791
-1.9533 0.2413 -0.8055 0.9915
-1.9444 -0.1084 -0.7970 0.9916
-4.7425 -1.1321 -1.9955 0.9791
-4.6223 -1.5506 -1.9954 0.9791
-4.2732 -2.3471 -1.9954 0.9791
-4.0469 -2.7190 -1.9954 0.9791
-2.8415 -3.9638 -1.9960 0.9791
-2.4769 -4.2020 -1.9963 0.9791
-0.4197 -4.8644 -1.9983 0.9791
0.0158 -4.8836 -1.9987 0.9791
2.1262 -4.4036 -2.0014 0.9791
2.8763 -3.9579 -2.0025 0.9791
3.8245 -3.0576 -2.0040 0.9791
4.0830 -2.7050 -2.0045 0.9791
4.3090 -2.3306 -2.0050 0.9790
4.5007 -1.9373 -2.0054 0.9790
4.6565 -1.5285 -2.0058 0.9790
4.9001 0.1965 -2.0071 0.9790
4.7880 1.0642 -2.0074 0.9790
4.5232 1.8982 -2.0076 0.9790
4.3358 2.2941 -2.0076 0.9790
4.1139 2.6716 -2.0076 0.9790
3.8590 3.0278 -2.0075 0.9790
3.5733 3.3597 -2.0074 0.9790
3.2592 3.6647 -2.0072 0.9790
2.9190 3.9403 -2.0070 0.9790
2.1718 4.3950 -2.0064 0.9790
0.9302 4.8104 -2.0052 0.9790
-1.6539 4.6041 -2.0022 0.9791
-2.0574 4.4370 -2.0017 0.9791
-2.8115 3.9987 -2.0006 0.9791
-3.1561 3.7309 -2.0000 0.9791
-3.4754 3.4337 -1.9995 0.9791
-4.2573 2.3893 -1.9980 0.9791
-2.0008 0.3109 -0.8287 0.9913
-1.9494 0.1266 -0.7995 0.9916
-1.9216 -0.0470 -0.7867 0.9917
-1.9557 -0.2235 -0.8056 0.9915
-4.6686 -1.4054 -1.9954 0.9791
-4.5245 -1.8161 -1.9954 0.9791
-4.3444 -2.2124 -1.9954 0.9791
-3.8824 -2.9493 -1.9955 0.9791
-3.6041 -3.2840 -1.9956 0.9791
-3.2971 -3.5927 -1.9957 0.9791
-2.9638 -3.8729 -1.9960 0.9791
-2.2291 -4.3391 -1.9965 0.9791
-0.5715 -4.8485 -1.9981 0.9791
-0.1368 -4.8813 -1.9986 0.9791
0.2993 -4.8752 -1.9991 0.9791
0.7331 -4.8303 -1.9996 0.9791
1.5805 -4.6257 -2.0006 0.9791
1.9873 -4.4675 -2.0012 0.9791
2.3786 -4.2736 -2.0017 0.9791
2.7510 -4.0455 -2.0023 0.9791
3.4279 -3.4942 -2.0033 0.9791
3.7268 -3.1754 -2.0039 0.9791
4.2338 -2.4638 -2.0048 0.9791
4.4376 -2.0769 -2.0053 0.9790
4.8319 -0.8284 -2.0064 0.9790
4.8807 0.4806 -2.0072 0.9790
4.8188 0.9141 -2.0074 0.9790
4.7184 1.3403 -2.0075 0.9790
4.5802 1.7559 -2.0076 0.9790
4.4054 2.1575 -2.0076 0.9790
3.6767 3.2465 -2.0074 0.9790
3.0408 3.8474 -2.0071 0.9790
2.6851 4.1027 -2.0068 0.9790
2.3082 4.3253 -2.0065 0.9790
0.6494 4.8555 -2.0049 0.9790
0.2136 4.8930 -2.0045 0.9791
-1.0886 4.7713 -2.0029 0.9791
-1.9179 4.4995 -2.0019 0.9791
-2.3110 4.3093 -2.0013 0.9791
-3.6682 3.2257 -1.9992 0.9791
-4.3881 2.1379 -1.9978 0.9791
-4.6963 1.3237 -1.9970 0.9791
-2.1992 0.4125 -0.9158 0.9904
-1.9049 0.0129 -0.7796 0.9918
-1.9567 -0.1619 -0.8036 0.9915
-4.2087 -2.4608 -1.9954 0.9791
-3.7048 -3.1697 -1.9955 0.9791
-2.7343 -4.0387 -1.9961 0.9791
-2.3635 -4.2671 -1.9964 0.9791
-1.9738 -4.4616 -1.9967 0.9791
-0.2892 -4.8742 -1.9984 0.9791
0.5818 -4.8504 -1.9994 0.9791
1.4351 -4.6724 -2.0004 0.9791
1.8466 -4.5270 -2.0010 0.9791
3.6255 -3.2900 -2.0037 0.9791
3.9055 -2.9542 -2.0042 0.9791
4.3703 -2.2143 -2.0051 0.9790
4.6961 -1.4032 -2.0060 0.9790
4.8034 -0.9789 -2.0063 0.9790
4.8932 0.3278 -2.0072 0.9790
4.7579 1.1922 -2.0075 0.9790
4.6328 1.6120 -2.0076 0.9790
3.4819 3.4542 -2.0073 0.9790
2.8122 4.0171 -2.0069 0.9790
2.3047 -3.9732 -2.0018 0.9802
2.9755 -3.5023 -2.0028 0.9801
3.2768 -3.2237 -2.0033 0.9801
3.7993 -2.5914 -2.0043 0.9801
4.2010 -1.8759 -2.0051 0.9801
4.5502 -0.6972 -2.0062 0.9801
4.5949 -0.2886 -2.0065 0.9801
4.6029 0.1224 -2.0067 0.9801
4.5740 0.5325 -2.0069 0.9801
4.5087 0.9385 -2.0071 0.9801
4.4072 1.3370 -2.0072 0.9801
4.0997 2.0988 -2.0073 0.9801
3.6614 2.7937 -2.0072 0.9801
3.3974 3.1090 -2.0070 0.9801
2.4524 3.8963 -2.0064 0.9801
0.9343 4.5048 -2.0051 0.9801
0.1190 4.5972 -2.0042 0.9801
-0.2914 4.5884 -2.0037 0.9801
-0.6994 4.5430 -2.0033 0.9801
-1.4947 4.3443 -2.0023 0.9802
-1.8758 4.1926 -2.0017 0.9802
-2.2417 4.0075 -2.0012 0.9802
-3.2202 3.2686 -1.9997 0.9802
-3.4981 2.9676 -1.9992 0.9802
-3.9679 2.2978 -1.9983 0.9802
-4.1562 1.9344 -1.9979 0.9802
-1.5289 0.1200 -0.6684 0.9933
-1.5246 -0.0167 -0.6645 0.9934
-4.2724 -1.6483 -1.9958 0.9802
-4.1083 -2.0228 -1.9957 0.9802
-3.6836 -2.7207 -1.9958 0.9802
-3.1420 -3.3324 -1.9961 0.9802
-2.8326 -3.5997 -1.9963 0.9802
-1.0010 -4.4735 -1.9978 0.9802
0.6272 -4.5451 -1.9996 0.9802
1.0303 -4.4722 -2.0001 0.9802
1.4255 -4.3636 -2.0006 0.9802
1.8095 -4.2201 -2.0011 0.9802
2.1792 -4.0429 -2.0016 0.9802
2.5318 -3.8334 -2.0022 0.9802
2.8644 -3.5932 -2.0027 0.9801
3.7161 -2.7087 -2.0041 0.9801
4.3034 -1.6292 -2.0054 0.9801
4.4323 -1.2391 -2.0057 0.9801
4.6043 -0.0215 -2.0066 0.9801
4.5883 0.3894 -2.0068 0.9801
4.3223 1.5905 -2.0072 0.9801
4.1633 1.9697 -2.0073 0.9801
3.7470 2.6780 -2.0072 0.9801
3.4930 3.0014 -2.0071 0.9801
3.2111 3.3007 -2.0069 0.9801
2.5730 3.8180 -2.0065 0.9801
2.2219 4.0317 -2.0062 0.9801
0.6712 4.5509 -2.0048 0.9801
-2.8047 3.6334 -2.0004 0.9802
-3.1168 3.3679 -1.9999 0.9802
-3.4039 3.0758 -1.9994 0.9802
-4.0940 2.0634 -1.9980 0.9802
-4.2609 1.6897 -1.9976 0.9802
-1.5083 0.3041 -0.6706 0.9933
-1.5263 0.0310 -0.6653 0.9934
-1.5294 -0.1057 -0.6681 0.9933
-1.5092 -0.2410 -0.6661 0.9934
-1.5469 -0.3911 -0.6954 0.9931
-1.5931 -0.5581 -0.7357 0.9927
-3.9840 -2.2578 -1.9957 0.9802
-3.5197 -2.9300 -1.9959 0.9802
-3.2445 -3.2325 -1.9960 0.9802
-2.6191 -3.7583 -1.9964 0.9802
-2.2737 -3.9774 -1.9967 0.9802
-1.5314 -4.3195 -1.9973 0.9802
-1.1402 -4.4397 -1.9977 0.9802
-0.3333 -4.5736 -1.9985 0.9802
0.0760 -4.5861 -1.9990 0.9802
0.4848 -4.5621 -1.9994 0.9802
0.8900 -4.5018 -1.9999 0.9802
1.2883 -4.4056 -2.0004 0.9802
1.6766 -4.2742 -2.0009 0.9802
2.0517 -4.1087 -2.0015 0.9802
2.4106 -3.9103 -2.0020 0.9802
3.3623 -3.1349 -2.0035 0.9801
3.8676 -2.4888 -2.0044 0.9801
4.2501 -1.7627 -2.0052 0.9801
4.4973 -0.9799 -2.0060 0.9801
4.6011 -0.1653 -2.0065 0.9801
4.5582 0.6550 -2.0070 0.9801
4.2228 1.8387 -2.0073 0.9801
4.0420 2.2080 -2.0073 0.9801
3.8289 2.5597 -2.0072 0.9801
3.3128 3.1989 -2.0070 0.9801
2.3469 3.9605 -2.0063 0.9801
1.9840 4.1534 -2.0060 0.9801
1.6054 4.3131 -2.0057 0.9801
1.2140 4.4383 -2.0053 0.9801
0.4060 4.5815 -2.0045 0.9801
-0.0043 4.5984 -2.0041 0.9801
-1.2207 4.4300 -2.0026 0.9801
-1.6105 4.3023 -2.0021 0.9802
-1.9873 4.1405 -2.0016 0.9802
-3.0103 3.4640 -2.0001 0.9802
-3.3064 3.1809 -1.9996 0.9802
-3.5761 2.8726 -1.9991 0.9802
-3.8172 2.5416 -1.9986 0.9802
-1.5868 0.5249 -0.7284 0.9927
-1.5341 0.3595 -0.6867 0.9931
-1.5809 -0.4989 -0.7225 0.9928
-4.0526 -2.1322 -1.9957 0.9802
-3.8463 -2.4852 -1.9958 0.9802
-3.6094 -2.8185 -1.9958 0.9802
-3.3439 -3.1294 -1.9960 0.9802
-2.3968 -3.9042 -1.9966 0.9802
-2.0393 -4.1031 -1.9969 0.9802
-1.6655 -4.2693 -1.9972 0.9802
-0.8807 -4.4990 -1.9979 0.9802
-0.0674 -4.5859 -1.9988 0.9802
0.7489 -4.5270 -1.9998 0.9802
2.2870 -3.9833 -2.0018 0.9802
2.6339 -3.7644 -2.0023 0.9802
3.5391 -2.9350 -2.0038 0.9801
3.7877 -2.6082 -2.0043 0.9801
4.0061 -2.2605 -2.0047 0.9801
4.1926 -1.8946 -2.0051 0.9801
4.3457 -1.5133 -2.0055 0.9801
4.5470 -0.7174 -2.0062 0.9801
4.5935 -0.3090 -2.0065 0.9801
4.6033 0.1020 -2.0067 0.9801
4.5763 0.5122 -2.0069 0.9801
4.4131 1.3174 -2.0072 0.9801
4.2782 1.7058 -2.0072 0.9801
4.1090 2.0806 -2.0073 0.9801
3.9070 2.4388 -2.0072 0.9801
2.8067 3.6501 -2.0067 0.9801
2.4696 3.8854 -2.0064 0.9801
2.1129 4.0896 -2.0062 0.9801
0.9543 4.5007 -2.0051 0.9801
0.1394 4.5967 -2.0042 0.9801
-0.2711 4.5897 -2.0038 0.9801
-0.6792 4.5461 -2.0033 0.9801
-1.0817 4.4664 -2.0028 0.9801
-1.8571 4.2009 -2.0018 0.9802
-2.5727 3.8021 -2.0007 0.9802
-2.9008 3.5566 -2.0002 0.9802
-3.2057 3.2829 -1.9997 0.9802
-3.4849 2.9832 -1.9993 0.9802
-3.7362 2.6598 -1.9988 0.9802
-3.9577 2.3155 -1.9983 0.9802
-4.1476 1.9528 -1.9979 0.9802
-1.5561 0.4163 -0.7020 0.9930
-1.5032 0.2613 -0.6649 0.9934
-1.5285 0.1268 -0.6684 0.9933
-1.4970 -0.2804 -0.6638 0.9934
-4.2797 -1.6294 -1.9958 0.9802
-4.1172 -2.0046 -1.9957 0.9802
-2.5175 -3.8273 -1.9965 0.9802
-2.1664 -4.0371 -1.9968 0.9802
-1.7979 -4.2149 -1.9971 0.9802
-1.0208 -4.4690 -1.9978 0.9802
-0.6183 -4.5431 -1.9982 0.9802
0.6070 -4.5478 -1.9996 0.9802
1.4061 -4.3698 -2.0006 0.9802
1.7907 -4.2280 -2.0011 0.9802
2.1612 -4.0525 -2.0016 0.9802
2.5147 -3.8446 -2.0021 0.9802
3.4454 -3.0439 -2.0036 0.9801
4.4268 -1.2588 -2.0057 0.9801
4.6041 -0.0419 -2.0066 0.9801
4.5900 0.3690 -2.0068 0.9801
4.5392 0.7770 -2.0070 0.9801
4.4520 1.1788 -2.0071 0.9801
3.9813 2.3155 -2.0073 0.9801
3.2258 3.2865 -2.0070 0.9801
2.2398 4.0218 -2.0063 0.9801
1.4891 4.3544 -2.0056 0.9801
-0.5369 4.5655 -2.0035 0.9801
-1.3389 4.3953 -2.0025 0.9802
-2.7885 3.6459 -2.0004 0.9802
-3.6516 2.7755 -1.9989 0.9802
-3.8837 2.4382 -1.9985 0.9802
-4.0848 2.0816 -1.9981 0.9802
-1.5110 -0.2344 -0.6664 0.9934
-1.5916 -0.5497 -0.7338 0.9927
-4.1779 -1.8750 -1.9957 0.9802
-3.9940 -2.2401 -1.9957 0.9802
-3.5326 -2.9143 -1.9959 0.9802
-3.2588 -3.2180 -1.9960 0.9802
-2.9591 -3.4962 -1.9962 0.9802
-2.6357 -3.7466 -1.9964 0.9802
-1.9287 -4.1565 -1.9970 0.9802
-1.5505 -4.3126 -1.9973 0.9802
-0.7599 -4.5212 -1.9981 0.9802
-0.3536 -4.5720 -1.9985 0.9802
0.0556 -4.5863 -1.9989 0.9802
0.4646 -4.5642 -1.9994 0.9802
0.8700 -4.5056 -1.9999 0.9802
1.6576 -4.2815 -2.0009 0.9802
2.0334 -4.1177 -2.0014 0.9802
2.7340 -3.6928 -2.0025 0.9802
3.6168 -2.8393 -2.0039 0.9801
3.8565 -2.5059 -2.0044 0.9801
4.3850 -1.3964 -2.0056 0.9801
4.5648 -0.5952 -2.0063 0.9801
4.5611 0.6347 -2.0070 0.9801
4.4866 1.0391 -2.0071 0.9801
4.2309 1.8199 -2.0073 0.9801
3.8402 2.5426 -2.0072 0.9801
3.5979 2.8749 -2.0071 0.9801
3.3270 3.1842 -2.0070 0.9801
3.0294 3.4679 -2.0068 0.9801
2.7077 3.7239 -2.0066 0.9801
2.3645 3.9501 -2.0064 0.9801
2.0024 4.1446 -2.0061 0.9801
1.6245 4.3060 -2.0057 0.9801
1.2337 4.4329 -2.0054 0.9801
0.4263 4.5797 -2.0045 0.9801
-0.3940 4.5805 -2.0036 0.9801
-1.2010 4.4354 -2.0026 0.9801
-1.5914 4.3095 -2.0021 0.9802
-2.3306 3.9561 -2.0011 0.9802
-2.6735 3.7315 -2.0006 0.9802
-2.9949 3.4773 -2.0001 0.9802
-3.2923 3.1956 -1.9996 0.9802
-3.8059 2.5585 -1.9987 0.9802
-4.0181 2.2084 -1.9982 0.9802
-4.1982 1.8408 -1.9978 0.9802
-1.5375 0.3675 -0.6889 0.9931
-1.5143 0.2216 -0.6670 0.9933
-1.5788 -0.4906 -0.7205 0.9928
-4.2344 -1.7435 -1.9957 0.9802
-4.0620 -2.1142 -1.9957 0.9802
-3.3577 -3.1145 -1.9960 0.9802
-3.0668 -3.4019 -1.9961 0.9802
-2.7514 -3.6623 -1.9963 0.9802
-1.6844 -4.2618 -1.9972 0.9802
-1.2978 -4.3959 -1.9975 0.9802
-0.9007 -4.4950 -1.9979 0.9802
-0.4963 -4.5584 -1.9983 0.9802
0.7287 -4.5302 -1.9997 0.9802
1.1302 -4.4483 -2.0002 0.9802
1.5228 -4.3308 -2.0007 0.9802
1.9035 -4.1788 -2.0013 0.9802
2.6171 -3.7760 -2.0023 0.9802
2.9442 -3.5285 -2.0028 0.9801
3.5260 -2.9506 -2.0038 0.9801
3.7760 -2.6250 -2.0042 0.9801
4.4591 -1.1397 -2.0058 0.9801
4.5437 -0.7375 -2.0062 0.9801
4.5921 -0.3293 -2.0064 0.9801
4.5168 0.8984 -2.0071 0.9801
4.1182 2.0623 -2.0073 0.9801
3.9178 2.4214 -2.0072 0.9801
3.6861 2.7611 -2.0072 0.9801
3.1364 3.3717 -2.0069 0.9801
2.8229 3.6376 -2.0067 0.9801
2.1311 4.0802 -2.0062 0.9801
1.3717 4.3925 -2.0055 0.9801
0.9743 4.4964 -2.0051 0.9801
0.1598 4.5961 -2.0043 0.9801
-0.6590 4.5492 -2.0033 0.9801
-1.0619 4.4712 -2.0028 0.9801
-2.2061 4.0274 -2.0013 0.9802
-2.5558 3.8136 -2.0008 0.9802
-3.4717 2.9986 -1.9993 0.9802
-1.5980 0.5927 -0.7428 0.9926
-1.5280 0.1336 -0.6685 0.9933
-1.5227 -0.0032 -0.6636 0.9934
-1.4991 -0.2739 -0.6641 0.9934
-1.5989 -0.6006 -0.7444 0.9926
-4.1261 -1.9863 -1.9957 0.9802
-2.1843 -4.0274 -1.9968 0.9802
-1.8166 -4.2069 -1.9971 0.9802
-0.6384 -4.5403 -1.9982 0.9802
0.1785 -4.5835 -1.9991 0.9802
1.3867 -4.3759 -2.0006 0.9802
1.7719 -4.2359 -2.0011 0.9802
2.1432 -4.0620 -2.0016 0.9802
2.4976 -3.8556 -2.0021 0.9802
3.4318 -3.0591 -2.0036 0.9801
3.9226 -2.4018 -2.0045 0.9801
4.1220 -2.0428 -2.0049 0.9801
4.2887 -1.6673 -2.0053 0.9801
4.4211 -1.2784 -2.0057 0.9801
4.5182 -0.8791 -2.0060 0.9801
4.5793 -0.4726 -2.0063 0.9801
4.6038 -0.0623 -2.0066 0.9801
4.5915 0.3486 -2.0068 0.9801
4.4572 1.1590 -2.0071 0.9801
4.3362 1.5521 -2.0072 0.9801
4.1806 1.9327 -2.0073 0.9801
3.9916 2.2978 -2.0073 0.9801
3.5195 2.9703 -2.0071 0.9801
2.9353 3.5478 -2.0068 0.9801
2.2577 4.0119 -2.0063 0.9801
-0.1072 4.5969 -2.0040 0.9801
-0.5166 4.5679 -2.0035 0.9801
-0.9218 4.5025 -2.0030 0.9801
-1.3194 4.4013 -2.0025 0.9802
-3.6393 2.7917 -1.9990 0.9802
-3.8729 2.4554 -1.9985 0.9802
-1.5160 0.3196 -0.6752 0.9933
-1.5224 0.1812 -0.6682 0.9933
-1.5277 0.0446 -0.6661 0.9934
-1.5127 -0.2278 -0.6667 0.9933
-1.5406 -0.3750 -0.6910 0.9931
-1.5901 -0.5412 -0.7320 0.9927
-4.1861 -1.8564 -1.9957 0.9802
-3.2731 -3.2035 -1.9960 0.9802
-2.9745 -3.4830 -1.9962 0.9802
-2.6523 -3.7348 -1.9964 0.9802
-2.3089 -3.9570 -1.9967 0.9802
-1.5696 -4.3057 -1.9973 0.9802
-1.1795 -4.4293 -1.9977 0.9802
-0.7799 -4.5178 -1.9981 0.9802
1.6385 -4.2888 -2.0009 0.9802
2.3757 -3.9314 -2.0019 0.9802
2.7176 -3.7048 -2.0024 0.9802
3.3343 -3.1646 -2.0034 0.9801
3.6041 -2.8553 -2.0039 0.9801
3.8453 -2.5230 -2.0044 0.9801
4.3787 -1.4158 -2.0056 0.9801
4.4883 -1.0198 -2.0059 0.9801
4.5621 -0.6155 -2.0062 0.9801
4.6000 0.2050 -2.0068 0.9801
4.3826 1.4158 -2.0072 0.9801
4.2390 1.8011 -2.0072 0.9801
3.8514 2.5256 -2.0072 0.9801
3.3411 3.1694 -2.0070 0.9801
2.7243 3.7119 -2.0066 0.9801
2.0208 4.1357 -2.0061 0.9801
1.6436 4.2988 -2.0057 0.9801
1.2534 4.4274 -2.0054 0.9801
0.8533 4.5207 -2.0050 0.9801
0.4466 4.5778 -2.0046 0.9801
-1.1813 4.4408 -2.0027 0.9801
-2.3130 3.9665 -2.0011 0.9802
-2.6569 3.7434 -2.0006 0.9802
-2.9795 3.4906 -2.0001 0.9802
-3.5506 2.9043 -1.9991 0.9802
-3.7946 2.5754 -1.9987 0.9802
-1.5902 0.5417 -0.7321 0.9927
-1.5408 0.3755 -0.6912 0.9931
-1.5126 0.2282 -0.6667 0.9933
-1.5296 0.0925 -0.6678 0.9933
-1.5276 -0.0442 -0.6660 0.9934
-1.5158 -0.3192 -0.6751 0.9933
-4.2421 -1.7247 -1.9957 0.9802
-4.0713 -2.0962 -1.9957 0.9802
-3.8682 -2.4510 -1.9958 0.9802
-3.3715 -3.0996 -1.9959 0.9802
-2.0756 -4.0847 -1.9968 0.9802
-0.9206 -4.4909 -1.9979 0.9802
-0.1081 -4.5850 -1.9988 0.9802
0.3014 -4.5774 -1.9992 0.9802
1.1104 -4.4532 -2.0002 0.9802
1.8850 -4.1872 -2.0012 0.9802
2.6003 -3.7876 -2.0023 0.9802
2.9285 -3.5415 -2.0028 0.9801
3.7643 -2.6417 -2.0042 0.9801
3.9858 -2.2959 -2.0047 0.9801
4.1756 -1.9317 -2.0051 0.9801
4.3321 -1.5518 -2.0055 0.9801
4.4540 -1.1595 -2.0058 0.9801
4.5404 -0.7577 -2.0061 0.9801
4.6040 0.0611 -2.0067 0.9801
4.5807 0.4716 -2.0069 0.9801
4.1273 2.0441 -2.0073 0.9801
3.9285 2.4040 -2.0072 0.9801
3.6983 2.7448 -2.0072 0.9801
3.1513 3.3578 -2.0069 0.9801
2.8390 3.6251 -2.0067 0.9801
2.1492 4.0708 -2.0062 0.9801
1.7773 4.2456 -2.0059 0.9801
1.3912 4.3864 -2.0055 0.9801
0.5895 4.5620 -2.0047 0.9801
0.1802 4.5954 -2.0043 0.9801
-0.6388 4.5521 -2.0033 0.9801
-2.5389 3.8249 -2.0008 0.9802
-2.8692 3.5823 -2.0003 0.9802
-3.1765 3.3113 -1.9998 0.9802
-3.7126 2.6929 -1.9988 0.9802
-1.5618 0.4327 -0.7063 0.9930
-1.4989 0.2743 -0.6641 0.9934
-1.5588 -0.4240 -0.7040 0.9930
-1.5979 -0.5922 -0.7427 0.9926
-3.4666 -2.9926 -1.9959 0.9802
-3.1861 -3.2902 -1.9960 0.9802
-1.0604 -4.4596 -1.9978 0.9802
-0.6585 -4.5374 -1.9982 0.9802
0.1582 -4.5842 -1.9991 0.9802
0.5666 -4.5529 -1.9995 0.9802
0.9707 -4.4853 -2.0000 0.9802
1.3672 -4.3820 -2.0005 0.9802
2.1251 -4.0714 -2.0016 0.9802
2.8161 -3.6309 -2.0026 0.9801
3.6796 -2.7578 -2.0040 0.9801
4.1129 -2.0610 -2.0049 0.9801
4.2812 -1.6863 -2.0053 0.9801
4.4153 -1.2980 -2.0057 0.9801
4.5143 -0.8991 -2.0060 0.9801
4.4623 1.1392 -2.0071 0.9801
4.3431 1.5328 -2.0072 0.9801
3.2548 3.2577 -2.0070 0.9801
2.9510 3.5347 -2.0068 0.9801
2.6237 3.7834 -2.0066 0.9801
2.2754 4.0018 -2.0063 0.9801
0.3237 4.5878 -2.0044 0.9801
-0.4963 4.5702 -2.0035 0.9801
-1.6873 4.2725 -2.0020 0.9802
-2.0612 4.1040 -2.0015 0.9802
-2.4184 3.9028 -2.0010 0.9802
-2.7561 3.6706 -2.0005 0.9802
-3.6269 2.8079 -1.9990 0.9802
-3.8620 2.4726 -1.9985 0.9802
-4.2381 1.7463 -1.9977 0.9802
-1.5789 0.4911 -0.7206 0.9928
-1.5282 0.0514 -0.6664 0.9934
-1.5296 -0.0853 -0.6676 0.9933
-1.5143 -0.2212 -0.6670 0.9933
-1.5373 -0.3670 -0.6888 0.9931
-1.5884 -0.5328 -0.7302 0.9927
-3.5583 -2.8828 -1.9959 0.9802
-2.6689 -3.7230 -1.9964 0.9802
-1.9654 -4.1391 -1.9969 0.9802
-1.5887 -4.2986 -1.9973 0.9802
-0.7999 -4.5142 -1.9980 0.9802
0.0149 -4.5865 -1.9989 0.9802
0.8300 -4.5131 -1.9999 0.9802
1.2295 -4.4222 -2.0004 0.9802
1.6194 -4.2960 -2.0009 0.9802
2.3582 -3.9419 -2.0019 0.9802
3.0226 -3.4619 -2.0029 0.9801
3.8340 -2.5400 -2.0043 0.9801
4.3723 -1.4352 -2.0056 0.9801
4.4837 -1.0397 -2.0059 0.9801
4.5593 -0.6357 -2.0062 0.9801
4.5984 -0.2266 -2.0065 0.9801
4.5665 0.5942 -2.0069 0.9801
4.4956 0.9992 -2.0071 0.9801
4.3888 1.3963 -2.0072 0.9801
4.2469 1.7822 -2.0072 0.9801
4.0710 2.1540 -2.0073 0.9801
3.8626 2.5085 -2.0072 0.9801
3.6233 2.8429 -2.0071 0.9801
3.3551 3.1545 -2.0070 0.9801
3.0601 3.4409 -2.0069 0.9801
2.3995 3.9290 -2.0064 0.9801
2.0392 4.1267 -2.0061 0.9801
1.2731 4.4219 -2.0054 0.9801
0.8734 4.5169 -2.0050 0.9801
0.4669 4.5758 -2.0046 0.9801
0.0569 4.5982 -2.0041 0.9801
-0.3533 4.5839 -2.0037 0.9801
-1.1616 4.4460 -2.0027 0.9801
-1.9321 4.1667 -2.0017 0.9802
-2.2954 3.9768 -2.0011 0.9802
-2.6403 3.7552 -2.0006 0.9802
-2.9640 3.5039 -2.0001 0.9802
-3.2639 3.2247 -1.9996 0.9802
-3.5377 2.9200 -1.9992 0.9802
-3.7832 2.5923 -1.9987 0.9802
-4.1818 1.8781 -1.9978 0.9802
-1.5440 0.3835 -0.6933 0.9931
-1.5296 0.0993 -0.6680 0.9933
-1.5120 -0.3114 -0.6728 0.9933
-1.5743 -0.4739 -0.7165 0.9929
-3.8790 -2.4338 -1.9957 0.9802
-2.7838 -3.6376 -1.9963 0.9802
-1.3367 -4.3841 -1.9975 0.9802
-0.9405 -4.4867 -1.9979 0.9802
-0.5367 -4.5537 -1.9983 0.9802
-0.1284 -4.5844 -1.9987 0.9802
1.4843 -4.3441 -2.0007 0.9802
1.8663 -4.1955 -2.0012 0.9802
2.5834 -3.7990 -2.0022 0.9802
3.2189 -3.2812 -2.0032 0.9801
3.4996 -2.9818 -2.0037 0.9801
3.7525 -2.6583 -2.0042 0.9801
3.9755 -2.3136 -2.0046 0.9801
4.1669 -1.9501 -2.0051 0.9801
4.3251 -1.5710 -2.0054 0.9801
4.5889 -0.3701 -2.0064 0.9801
4.3005 1.6487 -2.0072 0.9801
4.1363 2.0257 -2.0073 0.9801
3.1663 3.3437 -2.0069 0.9801
2.8551 3.6125 -2.0067 0.9801
2.5212 3.8523 -2.0065 0.9801
2.1673 4.0612 -2.0062 0.9801
1.4107 4.3802 -2.0055 0.9801
1.0142 4.4877 -2.0051 0.9801
-1.0222 4.4805 -2.0029 0.9801
-4.1213 2.0080 -1.9980 0.9802
-4.2832 1.6320 -1.9976 0.9802
-1.5644 0.4409 -0.7084 0.9929
-1.4969 0.2808 -0.6637 0.9934
-1.5237 0.0104 -0.6641 0.9934
-1.5285 -0.1264 -0.6684 0.9933
-1.5969 -0.5837 -0.7410 0.9926
-3.9532 -2.3114 -1.9957 0.9802
-3.2006 -3.2760 -1.9960 0.9802
-1.4729 -4.3399 -1.9974 0.9802
-1.0802 -4.4548 -1.9977 0.9802
-0.6787 -4.5343 -1.9982 0.9802
0.5464 -4.5553 -1.9995 0.9802
1.7342 -4.2513 -2.0010 0.9802
2.8000 -3.6433 -2.0026 0.9802
3.4044 -3.0894 -2.0036 0.9801
3.9010 -2.4365 -2.0045 0.9801
4.1036 -2.0793 -2.0049 0.9801
4.2736 -1.7053 -2.0053 0.9801
4.4095 -1.3175 -2.0057 0.9801
4.5749 -0.5133 -2.0063 0.9801
4.6030 -0.1032 -2.0066 0.9801
4.5944 0.3078 -2.0068 0.9801
4.4673 1.1194 -2.0071 0.9801
4.1976 1.8955 -2.0073 0.9801
4.0118 2.2623 -2.0073 0.9801
3.7940 2.6111 -2.0072 0.9801
3.5458 2.9389 -2.0071 0.9801
3.2693 3.2433 -2.0070 0.9801
2.9667 3.5216 -2.0068 0.9801
2.6404 3.7718 -2.0066 0.9801
2.1699 -3.7408 -2.0018 0.9811
2.4955 -3.5332 -2.0023 0.9811
3.3442 -2.7484 -2.0037 0.9811
3.7809 -2.1114 -2.0045 0.9811
3.9550 -1.7661 -2.0049 0.9811
4.3330 0.1152 -2.0064 0.9811
4.3059 0.5013 -2.0066 0.9811
4.1488 1.2586 -2.0068 0.9811
3.6677 2.3121 -2.0069 0.9811
3.4467 2.6299 -2.0068 0.9811
3.1982 2.9267 -2.0067 0.9811
2.9242 3.2001 -2.0066 0.9811
1.6197 4.0186 -2.0056 0.9811
0.8796 4.2410 -2.0049 0.9811
0.4977 4.3017 -2.0045 0.9811
0.1120 4.3280 -2.0040 0.9811
-0.6585 4.2772 -2.0032 0.9811
-1.7661 3.9474 -2.0017 0.9811
-2.1106 3.7732 -2.0012 0.9811
-2.4381 3.5691 -2.0008 0.9811
-1.3122 0.6107 -0.6699 0.9936
-1.3332 0.4811 -0.6561 0.9938
-1.3350 -0.0146 -0.6180 0.9941
-1.3362 -0.1344 -0.6216 0.9941
-1.3118 -0.2517 -0.6183 0.9941
-3.8687 -1.9049 -1.9961 0.9812
-3.4688 -2.5620 -1.9961 0.9812
-3.2266 -2.8614 -1.9962 0.9812
-2.9588 -3.1380 -1.9964 0.9812
-2.6673 -3.3897 -1.9966 0.9812
-2.3546 -3.6145 -1.9968 0.9812
-1.3143 -4.1107 -1.9977 0.9812
0.2064 -4.3142 -1.9993 0.9811
0.9701 -4.2108 -2.0002 0.9811
1.3422 -4.1085 -2.0007 0.9811
2.0518 -3.8065 -2.0016 0.9811
2.6968 -3.3830 -2.0026 0.9811
3.2564 -2.8513 -2.0035 0.9811
3.7129 -2.2283 -2.0044 0.9811
3.8976 -1.8886 -2.0048 0.9811
4.0513 -1.5338 -2.0052 0.9811
4.1726 -1.1665 -2.0055 0.9811
4.3148 -0.4067 -2.0061 0.9811
4.3344 -0.0202 -2.0063 0.9811
4.1860 1.1283 -2.0068 0.9811
4.0689 1.4972 -2.0069 0.9811
3.9192 1.8542 -2.0069 0.9811
3.7382 2.1964 -2.0069 0.9811
2.7334 3.3642 -2.0064 0.9811
1.7446 3.9663 -2.0057 0.9811
1.3836 4.1054 -2.0053 0.9811
0.2472 4.3227 -2.0042 0.9811
-3.2051 2.8961 -1.9995 0.9811
-3.4498 2.5981 -1.9991 0.9811
-3.6670 2.2795 -1.9986 0.9811
-3.8550 1.9430 -1.9982 0.9812
-1.3295 0.5272 -0.6620 0.9937
-1.3080 0.2637 -0.6176 0.9941
-1.3385 -0.0925 -0.6210 0.9941
-1.3107 -0.3314 -0.6258 0.9941
-1.3336 -0.4672 -0.6541 0.9938
-3.0553 -3.0439 -1.9963 0.9812
-2.7718 -3.3046 -1.9965 0.9812
-2.4663 -3.5390 -1.9967 0.9812
-0.6966 -4.2605 -1.9983 0.9812
0.0715 -4.3182 -1.9991 0.9811
0.4565 -4.2956 -1.9996 0.9811
0.8380 -4.2387 -2.0000 0.9811
1.2130 -4.1481 -2.0005 0.9811
1.9317 -3.8684 -2.0015 0.9811
2.5895 -3.4653 -2.0024 0.9811
2.8890 -3.2213 -2.0029 0.9811
4.0011 -1.6595 -2.0050 0.9811
4.2337 -0.9225 -2.0057 0.9811
4.3285 0.2314 -2.0065 0.9811
4.2910 0.6166 -2.0066 0.9811
4.2192 0.9969 -2.0068 0.9811
4.1136 1.3694 -2.0069 0.9811
3.8050 2.0785 -2.0069 0.9811
3.6044 2.4096 -2.0069 0.9811
3.3749 2.7213 -2.0068 0.9811
3.1186 3.0113 -2.0067 0.9811
2.8373 3.2772 -2.0065 0.9811
2.5334 3.5169 -2.0063 0.9811
2.2094 3.7284 -2.0061 0.9811
-0.0040 4.3292 -2.0039 0.9811
-0.3901 4.3106 -2.0035 0.9811
-1.1492 4.1708 -2.0025 0.9811
-2.5328 3.5022 -2.0006 0.9811
-2.8344 3.2615 -2.0001 0.9811
-3.1133 2.9950 -1.9997 0.9811
-3.5943 2.3932 -1.9988 0.9811
-1.3032 0.3054 -0.6196 0.9941
-1.3293 -0.4196 -0.6452 0.9939
-1.3257 -0.5528 -0.6649 0.9937
-3.6220 -2.3403 -1.9961 0.9812
-3.3989 -2.6541 -1.9962 0.9812
-3.1488 -2.9469 -1.9963 0.9812
-2.8737 -3.2163 -1.9964 0.9812
-2.5756 -3.4601 -1.9966 0.9812
-1.5683 -4.0202 -1.9974 0.9812
-0.8293 -4.2363 -1.9982 0.9812
0.3220 -4.3074 -1.9994 0.9811
1.0827 -4.1836 -2.0003 0.9811
1.8097 -3.9265 -2.0013 0.9811
2.1533 -3.7504 -2.0018 0.9811
2.4798 -3.5442 -2.0023 0.9811
2.7867 -3.3097 -2.0027 0.9811
3.0715 -3.0487 -2.0032 0.9811
3.3319 -2.7632 -2.0037 0.9811
3.5659 -2.4555 -2.0041 0.9811
3.7715 -2.1281 -2.0045 0.9811
4.2805 -0.6753 -2.0059 0.9811
4.3335 0.0960 -2.0064 0.9811
4.1544 1.2401 -2.0068 0.9811
3.8681 1.9586 -2.0069 0.9811
3.6779 2.2958 -2.0069 0.9811
2.6422 3.4361 -2.0064 0.9811
1.6375 4.0114 -2.0056 0.9811
0.8984 4.2371 -2.0049 0.9811
0.5168 4.2995 -2.0045 0.9811
0.1312 4.3275 -2.0041 0.9811
-0.2552 4.3210 -2.0036 0.9811
-0.6395 4.2801 -2.0032 0.9811
-1.0184 4.2050 -2.0027 0.9811
-1.3891 4.0964 -2.0022 0.9811
-3.0184 3.0911 -1.9998 0.9811
-3.5180 2.5045 -1.9989 0.9811
-1.3183 0.2291 -0.6194 0.9941
-1.3380 0.1110 -0.6214 0.9941
-1.3368 -0.1285 -0.6216 0.9941
-1.3206 -0.3719 -0.6351 0.9940
-1.3316 -0.5070 -0.6595 0.9937
-3.2393 -2.8470 -1.9962 0.9812
-1.3325 -4.1048 -1.9977 0.9812
0.1873 -4.3150 -1.9992 0.9811
0.9514 -4.2150 -2.0002 0.9811
1.3239 -4.1144 -2.0006 0.9811
1.6860 -3.9808 -2.0011 0.9811
2.0349 -3.8155 -2.0016 0.9811
2.6817 -3.3949 -2.0026 0.9811
2.9745 -3.1429 -2.0030 0.9811
3.2437 -2.8657 -2.0035 0.9811
3.4872 -2.5655 -2.0039 0.9811
3.8891 -1.9059 -2.0048 0.9811
4.3342 -0.0394 -2.0063 0.9811
4.1910 1.1097 -2.0068 0.9811
3.9274 1.8368 -2.0069 0.9811
3.5384 2.5053 -2.0069 0.9811
3.3007 2.8108 -2.0068 0.9811
3.0366 3.0938 -2.0066 0.9811
2.7483 3.3520 -2.0065 0.9811
2.4381 3.5834 -2.0062 0.9811
2.1085 3.7861 -2.0060 0.9811
1.0304 4.2072 -2.0050 0.9811
0.6510 4.2815 -2.0046 0.9811
-0.8866 4.2351 -2.0029 0.9811
-1.2606 4.1382 -2.0024 0.9811
-1.9748 3.8465 -2.0014 0.9811
-2.3095 3.6542 -2.0009 0.9811
-3.1922 2.9103 -1.9995 0.9811
-3.6569 2.2958 -1.9987 0.9811
-3.8464 1.9601 -1.9983 0.9812
-1.3061 0.2693 -0.6173 0.9941
-1.3338 0.1528 -0.6214 0.9941
-1.3385 -0.0866 -0.6209 0.9941
-1.3241 -0.2054 -0.6203 0.9941
-1.3336 -0.4606 -0.6531 0.9938
-1.3175 -0.5913 -0.6685 0.9937
-3.3266 -2.7443 -1.9962 0.9812
-3.0688 -3.0303 -1.9963 0.9812
-2.7865 -3.2922 -1.9965 0.9812
-1.8161 -3.9139 -1.9972 0.9812
-1.0922 -4.1757 -1.9979 0.9812
-0.7155 -4.2573 -1.9983 0.9812
0.8192 -4.2424 -2.0000 0.9811
1.1946 -4.1534 -2.0005 0.9811
1.9145 -3.8769 -2.0014 0.9811
2.2532 -3.6916 -2.0019 0.9811
2.8746 -3.2340 -2.0029 0.9811
3.1523 -2.9654 -2.0033 0.9811
3.4050 -2.6730 -2.0038 0.9811
3.8274 -2.0264 -2.0046 0.9811
3.9937 -1.6772 -2.0050 0.9811
4.2973 -0.5603 -2.0060 0.9811
4.3307 -0.1748 -2.0062 0.9811
4.3295 0.2121 -2.0065 0.9811
4.2937 0.5975 -2.0066 0.9811
4.1197 1.3511 -2.0069 0.9811
3.8142 2.0616 -2.0069 0.9811
3.6150 2.3936 -2.0069 0.9811
3.3870 2.7063 -2.0068 0.9811
3.1319 2.9975 -2.0067 0.9811
1.5293 4.0537 -2.0055 0.9811
1.1615 4.1732 -2.0051 0.9811
0.7845 4.2594 -2.0048 0.9811
0.0152 4.3292 -2.0039 0.9811
-0.3709 4.3123 -2.0035 0.9811
-1.1307 4.1759 -2.0026 0.9811
-1.4983 4.0574 -2.0021 0.9811
-1.8538 3.9067 -2.0016 0.9811
-2.5172 3.5134 -2.0006 0.9811
-2.8199 3.2741 -2.0002 0.9811
-3.3552 2.7197 -1.9992 0.9811
-3.7835 2.0794 -1.9984 0.9812
-1.3385 0.0750 -0.6205 0.9941
-1.3321 -0.1642 -0.6213 0.9941
-1.3282 -0.4127 -0.6438 0.9939
-1.3268 -0.5463 -0.6642 0.9937
-3.8251 -1.9909 -1.9961 0.9812
-3.4107 -2.6390 -1.9962 0.9812
-3.1619 -2.9329 -1.9963 0.9812
-2.8879 -3.2035 -1.9964 0.9812
-2.5909 -3.4486 -1.9966 0.9812
-2.2732 -3.6664 -1.9969 0.9812
-1.9374 -3.8551 -1.9971 0.9812
-1.5861 -4.0131 -1.9974 0.9812
1.0641 -4.1883 -2.0003 0.9811
1.7922 -3.9345 -2.0013 0.9811
2.1366 -3.7599 -2.0018 0.9811
2.4640 -3.5552 -2.0022 0.9811
3.0579 -3.0622 -2.0032 0.9811
3.9390 -1.8011 -2.0049 0.9811
4.1978 -1.0729 -2.0056 0.9811
4.2775 -0.6943 -2.0059 0.9811
4.3229 -0.3100 -2.0062 0.9811
4.3101 0.4631 -2.0066 0.9811
4.2520 0.8457 -2.0067 0.9811
4.0344 1.5879 -2.0069 0.9811
3.8767 1.9414 -2.0069 0.9811
3.6881 2.2795 -2.0069 0.9811
3.4699 2.5992 -2.0068 0.9811
2.9525 3.1740 -2.0066 0.9811
2.6574 3.4244 -2.0064 0.9811
2.3411 3.6473 -2.0062 0.9811
2.0062 3.8411 -2.0059 0.9811
1.2914 4.1351 -2.0053 0.9811
0.5359 4.2972 -2.0045 0.9811
-1.3709 4.1026 -2.0023 0.9811
-2.4064 3.5907 -2.0008 0.9811
-2.7164 3.3609 -2.0003 0.9811
-3.0047 3.1045 -1.9999 0.9811
-3.2689 2.8235 -1.9994 0.9811
-3.5069 2.5201 -1.9990 0.9811
-3.7169 2.1968 -1.9985 0.9811
-3.8973 1.8561 -1.9982 0.9812
-1.3177 0.3588 -0.6321 0.9940
-1.3336 -0.0028 -0.6173 0.9941
-1.3374 -0.1226 -0.6216 0.9941
-1.3152 -0.2403 -0.6189 0.9941
-1.3321 -0.5004 -0.6587 0.9937
-3.8854 -1.8704 -1.9961 0.9812
-3.7031 -2.2096 -1.9961 0.9812
-3.2519 -2.8326 -1.9962 0.9812
-2.9865 -3.1116 -1.9964 0.9812
-2.6973 -3.3659 -1.9965 0.9812
-1.7106 -3.9614 -1.9973 0.9812
-0.2175 -4.3127 -1.9988 0.9811
2.3515 -3.6301 -2.0021 0.9811
2.9605 -3.1560 -2.0030 0.9811
